# .PCD v0.7 - Point Cloud Data file format
VERSION 0.7
FIELDS x y z intensity
SIZE 4 4 4 4
TYPE F F F F
COUNT 1 1 1 1
WIDTH 2815
HEIGHT 1
VIEWPOINT 0 0 0 1 0 0 0
POINTS 2815
DATA ascii
8519 -4099 -592 1
11601 -5548 -386 67
11613 -5532 33 66
8385 -4092 -736 28
8522 -4130 -437 3
11605 -5593 -174 63
8465 -4146 -591 8
11164 -5434 -373 48
11615 -5630 33 67
8383 -4164 -739 28
8451 -4168 -435 3
11501 -5641 -174 10
8538 -4256 -598 1
11402 -5648 -383 7
11482 -5664 33 7
8401 -4247 -744 35
8539 -4286 -441 6
11316 -5647 -172 6
8548 -4336 -602 14
11169 -5628 -377 7
11252 -5647 32 6
8358 -4299 -743 25
8543 -4362 -443 3
11097 -5634 -169 6
8541 -4408 -603 0
10972 -5625 -371 7
11042 -5637 31 6
8391 -4391 -749 32
10551 -5480 -549 7
10874 -5615 -167 6
8506 -4465 -603 0
10764 -5613 -365 7
10832 -5625 31 6
8392 -4467 -751 33
8513 -4497 -444 1
10680 -5609 -164 6
8507 -4541 -605 1
8480 -4497 -289 0
10638 -5617 31 6
8371 -4531 -752 20
8533 -4584 -447 12
10489 -5602 -160 6
8448 -4586 -602 3
8519 -4594 -290 2
10443 -5606 31 6
8376 -4610 -755 37
8459 -4621 -444 2
10268 -5576 -157 9
9850 -5438 -705 34
8568 -4697 -292 1
10250 -5595 32 6
8387 -4694 -758 28
9973 -5538 -524 10
10105 -5578 -154 9
9638 -5409 -691 54
9993 -5569 -341 6
10048 -5575 32 9
8389 -4774 -760 46
9835 -5552 -518 9
9902 -5556 -151 9
9541 -5443 -685 60
9796 -5549 -334 6
9870 -5566 33 8
8434 -4878 -766 59
9665 -5545 -510 9
9734 -5551 -147 9
9426 -5466 -679 58
9624 -5541 -329 8
9701 -5560 34 9
6527 -3837 -594 0
9493 -5535 -501 9
9537 -5526 -143 4
8914 -5252 -643 32
9467 -5539 -323 9
9529 -5550 35 9
8377 -5004 -764 41
9318 -5521 -492 9
9413 -5543 -140 10
8570 -5132 -618 1
9281 -5517 -315 9
9323 -5517 37 39
8366 -5078 -764 45
8321 -5009 -439 0
9229 -5521 -136 9
8238 -5012 -595 0
9119 -5508 -309 5
9166 -5511 38 40
8350 -5150 -764 41
8218 -5026 -433 0
9080 -5518 -132 9
8126 -5022 -587 0
8970 -5503 -303 6
9011 -5503 40 42
6393 -4005 -586 77
8161 -5070 -430 0
8920 -5507 -127 9
7990 -5017 -577 0
8812 -5492 -296 4
8852 -5490 43 41
6377 -4058 -585 32
7986 -5039 -420 0
8537 -5353 -119 1
7878 -5024 -569 0
8050 -5095 -269 145
8502 -5356 44 2
5557 -3592 -509 12
7866 -5041 -412 0
8393 -5344 -115 1
7800 -5051 -563 0
8288 -5327 -275 1
8368 -5354 47 2
5642 -3704 -518 36
7762 -5052 -406 0
8258 -5340 -110 1
7664 -5040 -552 0
8215 -5362 -270 0
8219 -5339 49 2
2201 -1467 -202 7
2202 -1455 -114 3
8112 -5326 -105 1
2186 -1460 -157 6
2210 -1465 -72 12
8091 -5337 52 1
2147 -1453 -196 8
2175 -1459 -112 5
2183 -1455 -27 5
2145 -1454 -154 7
2163 -1455 -69 5
2176 -1457 15 7
2110 -1450 -193 8
2132 -1452 -110 7
2156 -1459 -26 6
2117 -1457 -151 7
2128 -1454 -67 6
2146 -1459 16 7
2071 -1445 -189 37
2097 -1450 -107 6
2114 -1452 -24 6
2074 -1449 -148 40
2092 -1450 -66 6
2106 -1453 17 7
0 0 0 0
2084 -1463 -106 19
2080 -1450 -23 12
2058 -1459 -146 14
2075 -1460 -64 16
2077 -1454 18 31
0 0 0 0
2071 -1476 -104 19
2081 -1473 -22 17
0 0 0 0
2070 -1478 -63 16
2077 -1476 19 19
0 0 0 0
2067 -1495 -103 13
2078 -1492 -20 18
0 0 0 0
2073 -1503 -62 17
2076 -1498 21 21
0 0 0 0
0 0 0 0
2073 -1511 -19 17
0 0 0 0
2069 -1522 -60 15
2075 -1519 22 21
0 0 0 0
0 0 0 0
2073 -1533 -17 16
0 0 0 0
0 0 0 0
2082 -1546 24 21
0 0 0 0
0 0 0 0
2070 -1553 -16 17
0 0 0 0
0 0 0 0
2088 -1574 26 19
0 0 0 0
0 0 0 0
6927 -5275 -47 0
0 0 0 0
0 0 0 0
7028 -5375 96 1
0 0 0 0
0 0 0 0
0 0 0 0
0 0 0 0
0 0 0 0
6973 -5410 103 11
0 0 0 0
0 0 0 0
0 0 0 0
0 0 0 0
0 0 0 0
6710 -5282 106 1
0 0 0 0
0 0 0 0
0 0 0 0
0 0 0 0
0 0 0 0
6586 -5258 111 1
0 0 0 0
0 0 0 0
0 0 0 0
0 0 0 0
0 0 0 0
6477 -5245 118 1
820 -681 -71 8
0 0 0 0
0 0 0 0
819 -681 -53 7
0 0 0 0
6397 -5254 124 0
804 -677 -69 11
0 0 0 0
0 0 0 0
805 -679 -51 10
0 0 0 0
6293 -5242 130 0
796 -680 -67 17
0 0 0 0
0 0 0 0
799 -683 -50 12
0 0 0 0
0 0 0 0
792 -686 -66 21
0 0 0 0
0 0 0 0
789 -684 -49 14
0 0 0 0
0 0 0 0
773 -679 -64 21
804 -700 -31 9
0 0 0 0
786 -691 -47 16
0 0 0 0
0 0 0 0
761 -677 -62 21
0 0 0 0
0 0 0 0
776 -691 -46 15
0 0 0 0
0 0 0 0
755 -682 -61 21
0 0 0 0
0 0 0 0
778 -703 -45 16
0 0 0 0
0 0 0 0
751 -687 -59 20
785 -711 -27 9
0 0 0 0
771 -706 -44 15
0 0 0 0
0 0 0 0
768 -712 -60 20
784 -720 -26 7
0 0 0 0
766 -710 -42 14
0 0 0 0
5652 -5187 183 0
772 -725 -59 20
0 0 0 0
0 0 0 0
763 -717 -41 12
0 0 0 0
5586 -5196 191 1
770 -733 -58 20
786 -742 -24 6
0 0 0 0
765 -729 -40 11
0 0 0 0
5526 -5210 201 0
758 -731 -56 16
0 0 0 0
0 0 0 0
784 -757 -39 9
0 0 0 0
5446 -5204 210 0
765 -748 -55 11
0 0 0 0
0 0 0 0
0 0 0 0
0 0 0 0
5369 -5199 219 1
768 -760 -54 11
0 0 0 0
0 0 0 0
0 0 0 0
0 0 0 0
5289 -5189 228 1
0 0 0 0
0 0 0 0
5238 -5180 116 0
0 0 0 0
0 0 0 0
5228 -5198 238 1
0 0 0 0
0 0 0 0
5179 -5188 127 1
0 0 0 0
0 0 0 0
5140 -5177 247 1
0 0 0 0
0 0 0 0
5116 -5192 138 1
0 0 0 0
5057 -5166 24 1
5085 -5188 258 0
5095 -5299 -320 8
0 0 0 0
5135 -5278 152 1
5078 -5285 -197 6
5131 -5309 38 11
5142 -5315 276 10
5034 -5298 -305 10
5073 -5299 -70 7
5106 -5314 165 10
5029 -5297 -183 9
5064 -5305 50 11
5073 -5311 287 10
4961 -5285 -289 3
5011 -5298 -56 10
5041 -5312 177 10
4956 -5283 -168 3
4997 -5298 63 11
5005 -5305 298 10
4801 -5175 -268 1
4822 -5160 -41 2
4904 -5232 187 1
4788 -5165 -150 1
4823 -5176 75 1
4820 -5174 302 1
4757 -5186 -254 1
4763 -5157 -28 11
4785 -5166 197 1
4744 -5176 -135 1
4752 -5161 88 1
4744 -5156 313 1
4702 -5185 -238 1
4713 -5164 -13 12
4729 -5168 209 1
4678 -5163 -120 1
4694 -5158 101 1
4695 -5165 325 1
2038 -2273 -97 35
4646 -5148 0 16
4662 -5157 222 1
2044 -2281 -46 28
4625 -5141 115 0
4627 -5152 337 1
2036 -2295 -91 128
2028 -2272 6 104
4604 -5151 235 1
2028 -2289 -40 105
2037 -2291 57 150
4568 -5147 349 1
2031 -2314 -85 86
2015 -2283 13 104
4540 -5139 247 1
2031 -2317 -33 58
2019 -2296 63 94
4515 -5147 362 1
1942 -2235 -75 0
2021 -2315 19 5
4496 -5147 261 1
4469 -5150 -59 1
4477 -5146 157 0
4469 -5154 376 0
4433 -5154 -157 1
4444 -5143 59 1
4451 -5151 275 1
4416 -5141 -43 1
4413 -5126 171 0
4411 -5145 388 1
4383 -5146 -141 0
4391 -5134 74 1
4384 -5130 288 1
4369 -5137 -27 1
4375 -5135 186 0
4360 -5142 401 1
4351 -5157 -124 0
4350 -5136 89 1
4336 -5127 303 1
4325 -5133 -11 9
4334 -5139 201 0
4308 -5136 415 1
4295 -5137 -107 1
4328 -5161 105 1
4296 -5132 317 0
4291 -5140 4 12
4289 -5136 216 0
4272 -5147 430 0
4262 -5142 -90 1
4268 -5137 121 1
4263 -5144 333 0
4244 -5129 21 7
4245 -5131 232 0
4218 -5135 443 0
4230 -5145 -73 1
4232 -5139 137 0
4222 -5144 348 0
4204 -5124 37 2
4209 -5136 248 0
4175 -5133 458 0
4196 -5146 -56 1
4194 -5136 153 0
4185 -5147 364 0
4180 -5136 54 1
4166 -5127 263 0
4123 -5119 472 0
4149 -5126 -39 1
4161 -5139 170 0
4126 -5120 378 0
4138 -5124 71 1
4127 -5123 279 0
4096 -5133 488 0
4117 -5122 -21 6
4117 -5124 186 0
4097 -5128 394 0
4110 -5126 88 1
4116 -5150 297 0
4061 -5135 504 0
4089 -5121 -4 15
4093 -5132 203 0
4064 -5130 410 0
4070 -5111 105 0
4073 -5135 313 0
4030 -5140 521 0
4071 -5129 13 16
4071 -5139 221 0
4040 -5139 428 0
4049 -5116 123 0
4059 -5154 331 0
3986 -5125 535 0
4037 -5116 31 2
4038 -5130 238 0
4021 -5152 445 0
4043 -5138 141 0
4010 -5126 346 0
4008 -5194 559 0
4032 -5135 49 1
4007 -5122 254 0
3975 -5128 460 0
4012 -5126 158 0
3984 -5124 363 0
4017 -5243 581 2
4014 -5134 67 1
3985 -5121 272 0
3948 -5127 477 0
3997 -5131 177 0
3987 -5157 383 0
4003 -5260 601 7
3992 -5127 85 0
3978 -5136 291 0
3931 -5134 495 0
3975 -5123 194 0
3940 -5122 398 0
3979 -5261 619 7
3965 -5110 104 0
3951 -5123 308 0
3905 -5127 512 0
3962 -5125 213 0
3942 -5149 418 0
3962 -5268 637 7
3968 -5128 122 0
3941 -5129 327 0
3874 -5110 528 0
3955 -5131 231 0
3913 -5130 435 0
3931 -5254 654 7
3940 -5102 140 0
3929 -5129 345 0
3865 -5120 547 0
3945 -5130 250 0
3900 -5130 453 0
3915 -5256 673 7
3937 -5106 159 0
3930 -5143 364 0
3940 -5238 579 1
3942 -5134 269 0
3903 -5148 473 0
3891 -5244 689 6
3954 -5132 178 0
3909 -5124 382 0
3943 -5257 600 7
3936 -5131 287 0
3885 -5135 490 0
3897 -5269 712 7
3935 -5110 196 0
3905 -5126 401 0
3935 -5258 619 7
3933 -5130 306 0
3882 -5137 510 0
3875 -5252 729 6
3939 -5113 215 0
3893 -5113 418 0
3928 -5256 638 7
3943 -5142 325 0
3877 -5135 529 0
3868 -5253 748 6
3937 -5105 234 0
3906 -5129 439 0
3930 -5264 658 7
3954 -5153 345 0
3853 -5104 544 0
3863 -5251 767 6
3961 -5127 253 0
3894 -5109 456 0
3923 -5256 677 6
3950 -5140 363 0
3955 -5235 578 2
3867 -5259 788 6
3951 -5103 271 0
3916 -5130 477 0
3928 -5258 697 6
3962 -5144 383 0
3977 -5258 600 7
3869 -5261 808 6
3975 -5119 291 0
3915 -5119 495 0
3925 -5249 716 6
3982 -5156 403 0
3982 -5255 619 7
3871 -5258 828 7
3987 -5117 309 0
3931 -5126 515 0
3939 -5258 737 7
3979 -5134 420 0
3992 -5254 639 7
3876 -5255 848 7
4001 -5113 328 0
3944 -5125 534 0
3953 -5263 757 7
3994 -5133 439 0
4009 -5260 660 7
3882 -5251 867 7
4029 -5125 348 0
4022 -5206 562 1
3965 -5262 778 7
4018 -5140 459 0
4021 -5254 679 7
3895 -5251 888 7
4062 -5140 367 0
4075 -5251 587 6
3985 -5268 799 7
4036 -5137 478 0
4044 -5260 700 11
3915 -5259 910 7
4081 -5134 386 0
4106 -5263 608 8
3993 -5254 817 7
4053 -5129 496 0
4049 -5240 718 18
3929 -5253 930 7
4107 -5134 405 0
4134 -5269 629 8
4023 -5266 840 7
4083 -5135 516 1
4075 -5244 738 20
3954 -5259 951 7
4133 -5132 423 0
4154 -5262 648 8
4050 -5270 861 7
4117 -5143 536 0
4116 -5264 762 6
3979 -5262 973 7
4162 -5130 442 0
4182 -5260 668 11
4070 -5262 880 7
4221 -5235 565 2
4144 -5263 782 8
4002 -5259 994 7
4195 -5132 460 0
4206 -5252 686 0
4103 -5269 903 7
4283 -5271 588 8
4183 -5274 804 8
4042 -5274 1017 7
4237 -5140 479 0
4256 -5273 709 7
4134 -5269 923 7
4315 -5266 607 10
4215 -5272 824 8
4066 -5265 1037 7
4282 -5150 499 0
4296 -5279 730 8
4171 -5274 944 7
4360 -5276 627 9
4243 -5264 843 8
4107 -5274 1060 7
4313 -5142 517 0
4329 -5273 749 8
4206 -5273 966 7
4397 -5272 646 9
4281 -5264 863 7
4139 -5271 1080 7
4360 -5149 535 0
4374 -5280 769 8
4253 -5285 989 7
4438 -5272 665 9
4331 -5276 885 8
4184 -5279 1104 7
4488 -5248 565 1
4417 -5280 789 8
4288 -5278 1008 7
4491 -5284 686 8
4375 -5279 906 7
4226 -5281 1126 7
4560 -5280 587 8
4462 -5282 809 8
4328 -5276 1029 7
4535 -5282 705 9
4421 -5281 927 7
4260 -5271 1145 7
4613 -5286 605 9
4510 -5284 829 8
4380 -5285 1051 7
4584 -5283 724 8
4483 -5301 951 8
4314 -5282 1169 7
4665 -5288 624 9
4568 -5296 851 8
4426 -5285 1072 7
4641 -5291 744 8
4524 -5293 969 7
4360 -5281 1190 7
4721 -5294 643 9
4617 -5295 870 7
4481 -5292 1095 7
4701 -5302 765 8
4574 -5292 990 7
4413 -5285 1212 7
4773 -5292 661 9
4664 -5291 889 8
4530 -5290 1115 7
4754 -5301 784 8
4632 -5299 1011 7
4467 -5290 1235 6
4839 -5304 681 9
4731 -5304 911 8
4588 -5296 1137 7
4808 -5300 802 8
4679 -5292 1030 7
4513 -5281 1255 8
4901 -5310 700 9
4788 -5306 931 7
4646 -5300 1159 7
4868 -5303 822 8
4742 -5299 1051 7
4523 -5230 1264 20
4958 -5308 717 9
4845 -5305 950 7
4708 -5306 1181 7
4935 -5312 842 8
4800 -5300 1072 7
4530 -5173 1272 28
5017 -5306 736 8
4908 -5310 971 7
4770 -5310 1203 7
4988 -5304 859 8
4872 -5313 1094 7
4516 -5093 1273 30
5090 -5318 755 9
4976 -5317 991 7
4832 -5313 1225 7
5058 -5312 879 8
4928 -5308 1114 7
4505 -5016 1273 30
5156 -5320 773 8
5042 -5320 1011 7
4898 -5317 1247 7
5122 -5313 898 8
4997 -5314 1135 7
4493 -4937 1274 29
5221 -5319 791 8
5107 -5320 1031 7
4910 -5261 1254 17
5199 -5323 918 8
5064 -5316 1155 7
4482 -4861 1274 27
5290 -5322 809 9
5181 -5329 1052 7
4947 -5232 1268 30
5262 -5319 936 8
5123 -5307 1174 7
4484 -4798 1277 28
5363 -5325 826 8
5244 -5323 1069 7
4929 -5143 1267 32
5345 -5333 956 7
5206 -5323 1197 7
4476 -4724 1277 27
5440 -5331 845 8
5327 -5336 1092 7
4922 -5067 1267 34
5411 -5328 974 8
5280 -5327 1218 7
4471 -4655 1278 27
5525 -5344 865 8
5402 -5339 1112 7
4919 -4995 1270 37
5486 -5330 993 8
5360 -5334 1240 7
4467 -4586 1277 29
5598 -5342 881 8
5483 -5347 1132 7
4912 -4920 1270 34
5570 -5339 1013 8
5378 -5280 1248 19
4465 -4520 1278 30
5674 -5341 899 8
5565 -5353 1153 7
4911 -4851 1271 38
5658 -5350 1033 8
5422 -5249 1260 32
4462 -4454 1278 31
5757 -5347 917 8
5643 -5354 1173 7
4909 -4781 1272 39
5734 -5347 1051 8
5414 -5169 1261 36
4466 -4394 1278 31
5851 -5360 937 8
5720 -5352 1191 7
4907 -4711 1272 39
5826 -5358 1071 8
5403 -5086 1260 36
4474 -4339 1281 37
5933 -5360 954 8
5813 -5363 1213 7
4905 -4643 1272 39
5913 -5363 1090 8
5413 -5024 1263 38
4483 -4284 1282 37
6027 -5370 973 9
5906 -5373 1235 8
4905 -4577 1272 40
5999 -5365 1109 8
5419 -4958 1266 38
4483 -4222 1281 39
6110 -5367 990 8
5933 -5320 1242 19
4918 -4522 1275 39
6096 -5375 1130 8
5416 -4885 1265 36
4489 -4165 1282 38
6203 -5372 1008 8
5978 -5284 1253 33
4922 -4461 1276 40
6190 -5380 1149 8
5421 -4818 1266 37
4499 -4113 1283 39
6300 -5379 1027 8
5991 -5220 1256 42
4924 -4397 1275 42
6280 -5380 1167 8
5422 -4749 1267 36
4511 -4063 1285 39
6398 -5386 1045 8
5993 -5147 1257 42
4941 -4347 1278 42
6388 -5395 1189 8
5424 -4682 1267 37
4522 -4012 1286 41
6495 -5388 1063 8
5989 -5068 1257 44
4946 -4286 1278 34
6487 -5399 1208 8
5435 -4622 1268 36
4530 -3958 1286 40
6600 -5396 1082 9
6001 -5004 1259 47
4960 -4235 1280 40
6582 -5398 1227 9
5437 -4555 1268 38
4544 -3910 1287 41
6705 -5403 1100 8
6009 -4937 1260 49
4972 -4181 1281 43
6625 -5354 1235 22
5452 -4500 1270 39
4557 -3862 1288 42
6815 -5411 1119 8
6018 -4871 1261 51
4976 -4121 1280 41
6667 -5309 1242 37
5462 -4441 1270 38
4580 -3822 1291 44
6928 -5420 1138 8
6024 -4804 1261 50
4993 -4073 1282 45
6705 -5260 1249 50
5468 -4379 1270 44
4590 -3771 1291 45
7036 -5423 1156 8
6034 -4740 1262 52
5006 -4021 1282 44
6717 -5191 1251 51
5489 -4330 1273 49
4617 -3735 1296 43
2080 -1579 342 6
6036 -4669 1261 54
5019 -3969 1283 48
2075 -1579 386 0
5506 -4277 1274 53
4671 -3720 1307 21
2083 -1558 342 16
2088 -1590 435 0
5034 -3920 1284 49
2093 -1569 389 13
5513 -4216 1273 56
4742 -3717 1323 1
2079 -1532 341 17
2084 -1564 434 13
5065 -3883 1288 52
2089 -1542 387 14
2088 -1572 481 11
4809 -3711 1338 5
2082 -1510 341 16
2086 -1541 433 13
2091 -1578 530 11
2086 -1516 386 14
2088 -1548 480 12
2081 -1580 577 7
2080 -1486 341 16
2080 -1513 431 13
2093 -1555 529 11
2090 -1496 387 15
2087 -1523 478 12
2083 -1556 575 12
2074 -1459 339 18
2083 -1492 431 12
2089 -1527 526 12
2089 -1472 386 15
2089 -1501 478 12
2094 -1540 577 13
2110 -1461 345 6
2085 -1469 430 14
2093 -1506 526 12
2106 -1461 388 5
2091 -1479 477 12
2095 -1516 575 12
2144 -1462 350 6
2114 -1466 435 5
2092 -1481 524 12
2142 -1463 394 5
2105 -1464 479 4
2097 -1493 573 12
2186 -1467 356 5
2140 -1461 439 5
2102 -1464 525 4
2176 -1463 399 4
2140 -1465 485 4
2098 -1469 572 10
7659 -5060 1246 40
2188 -1470 448 4
2141 -1467 533 4
2193 -1451 401 0
2177 -1466 492 4
2132 -1469 579 5
7647 -4972 1241 67
2150 -1421 439 0
2177 -1468 540 4
6888 -4484 1258 57
2215 -1468 499 0
2165 -1467 586 4
7672 -4909 1242 67
6238 -4058 1270 29
2209 -1465 546 1
6914 -4428 1259 62
5701 -3717 1281 61
2203 -1467 593 5
7700 -4848 1244 70
6257 -4004 1271 26
5254 -3427 1294 64
6921 -4362 1257 61
5740 -3681 1285 70
3292 -2157 883 1
7721 -4783 1244 73
6311 -3973 1277 25
5284 -3390 1297 64
6949 -4308 1259 59
5763 -3635 1286 71
3335 -2148 891 1
7748 -4722 1244 74
6349 -3931 1281 21
5309 -3349 1298 59
6981 -4257 1260 61
5794 -3593 1288 72
3395 -2150 904 1
7774 -4660 1245 73
6372 -3880 1281 15
3606 -2236 878 1
7008 -4203 1261 62
5816 -3547 1288 72
3339 -2078 885 1
7799 -4597 1245 75
6406 -3836 1283 13
3656 -2229 887 0
7045 -4154 1264 66
5846 -3505 1290 75
3352 -2051 885 0
7834 -4541 1247 77
6485 -3817 1295 5
3726 -2233 900 2
7074 -4102 1264 65
5875 -3462 1291 76
3650 -2195 960 3
7867 -4484 1249 73
6548 -3789 1303 2
3653 -2151 879 0
7099 -4046 1265 69
5863 -3397 1283 42
3450 -2038 903 0
7900 -4427 1249 66
6625 -3768 1313 151
3753 -2172 899 1
7134 -3997 1267 71
3988 -2270 870 1
3508 -2036 915 1
7913 -4359 1247 56
6802 -3802 1343 104
3773 -2146 901 1
7167 -3946 1268 72
4013 -2245 872 1
3421 -1951 888 3
7956 -4306 1250 55
6656 -3656 1309 1
3837 -2144 912 1
7201 -3897 1269 75
4092 -2249 885 2
5087 -2850 1315 49
7996 -4253 1251 54
6641 -3584 1301 151
3738 -2052 885 1
7227 -3842 1269 69
4072 -2199 878 0
3540 -1947 911 0
8033 -4199 1252 52
6813 -3612 1330 150
3886 -2094 916 0
7240 -3781 1266 68
3991 -2116 856 4
3608 -1949 925 1
8087 -4152 1256 42
6827 -3555 1327 2
3825 -2024 898 1
7286 -3738 1269 72
4160 -2166 889 0
5115 -2713 1305 71
8130 -4099 1258 40
4476 -2289 866 0
3819 -1984 893 0
7315 -3685 1269 74
4116 -2104 876 1
3769 -1962 957 0
8197 -4059 1263 37
4532 -2275 874 0
5593 -2853 1302 73
7350 -3636 1270 77
4151 -2083 880 0
5146 -2629 1301 61
8253 -4012 1267 31
4548 -2241 873 1
3917 -1961 908 0
7387 -3586 1272 78
4349 -2142 918 0
5195 -2605 1308 84
8309 -3965 1271 20
4571 -2211 874 1
4000 -1965 923 1
7421 -3536 1272 74
4208 -2034 885 1
4033 -1983 1011 4
8319 -3896 1267 37
4707 -2234 896 2
4130 -1990 949 1
7464 -3490 1274 70
4311 -2045 902 0
5201 -2509 1298 26
8452 -3884 1282 151
4735 -2204 898 0
0 0 0 0
5073 -2327 863 1
6265 -2915 1306 113
5228 -2474 1299 53
8634 -3893 1304 151
4782 -2184 903 35
5716 -2649 1302 76
5114 -2301 866 0
4780 -2181 992 62
5289 -2453 1309 85
8719 -3855 1312 104
4760 -2132 895 1
4785 -2175 1086 53
5139 -2267 866 0
6228 -2786 1287 49
4804 -2184 1183 67
8480 -3677 1271 139
4813 -2113 901 1
5758 -2565 1301 50
5159 -2232 866 1
4558 -1998 938 0
5343 -2381 1311 91
8648 -3676 1290 35
4871 -2096 908 0
5757 -2513 1295 47
5478 -2323 916 4
4688 -2014 961 0
5368 -2343 1311 83
8733 -3638 1297 15
4779 -2016 887 0
5832 -2494 1306 81
5230 -2173 871 0
6487 -2730 1324 18
5401 -2309 1314 79
5745 -2345 850 0
4904 -2026 907 0
5854 -2452 1306 82
5294 -2154 878 2
4906 -2023 997 3
5426 -2272 1314 79
5898 -2358 868 3
5021 -2032 925 4
5886 -2414 1307 80
5338 -2127 881 1
0 0 0 0
5444 -2232 1313 79
5901 -2310 865 2
5099 -2020 935 0
5908 -2372 1307 86
5310 -2072 873 0
6427 -2540 1295 66
5459 -2190 1311 79
6100 -2338 891 4
5245 -2034 958 0
5927 -2329 1305 84
5401 -2063 884 0
6463 -2499 1297 74
5486 -2154 1312 81
6023 -2259 876 1
5425 -2058 986 2
5961 -2291 1307 92
5503 -2057 897 4
6493 -2456 1298 78
5509 -2115 1312 83
5984 -2196 866 1
5519 -2049 999 0
5986 -2250 1307 87
7875 -2879 1278 78
6521 -2412 1298 77
5532 -2076 1312 80
6137 -2203 885 3
7142 -2592 1288 57
6014 -2210 1308 87
5786 -2068 936 0
6557 -2371 1300 79
5558 -2039 1313 82
6629 -2326 952 10
7204 -2556 1294 83
6033 -2167 1307 91
5962 -2083 960 0
6584 -2327 1300 82
5575 -1998 1311 79
6578 -2256 940 16
6681 -2316 1195 60
6059 -2126 1307 83
6096 -2081 977 7
6591 -2275 1296 91
5607 -1963 1314 79
6232 -2088 887 0
7249 -2454 1292 84
6083 -2084 1308 88
6254 -2085 999 0
6646 -2241 1302 80
5632 -1925 1314 47
8962 -2932 1270 77
7288 -2409 1293 86
6105 -2042 1307 82
6477 -2108 1030 0
6670 -2195 1301 80
5655 -1886 1314 79
6595 -2106 931 1
7316 -2360 1293 85
6135 -2002 1308 88
8104 -2574 1284 85
6690 -2147 1300 80
5679 -1847 1315 91
6808 -2120 957 0
7349 -2312 1294 85
6176 -1965 1312 53
8132 -2519 1283 84
6722 -2104 1301 78
5703 -1808 1315 93
6997 -2126 980 11
7379 -2264 1294 90
6173 -1915 1306 94
5920 -1787 930 120
6746 -2058 1301 76
5726 -1769 1316 93
5925 -1754 826 136
5916 -1769 1034 107
5921 -1789 1248 87
5918 -1741 926 124
5922 -1760 1138 103
5747 -1729 1316 88
5924 -1708 823 120
5922 -1724 1031 112
5931 -1745 1246 94
5922 -1696 924 119
5922 -1714 1133 103
5766 -1689 1315 87
5982 -1680 828 2
5935 -1682 1029 72
5936 -1700 1242 96
6041 -1684 938 1
5985 -1685 1141 2
5801 -1653 1319 86
9218 -2518 1271 103
7494 -2066 1295 92
6283 -1750 1310 95
8303 -2252 1285 81
6874 -1882 1306 97
5806 -1608 1315 93
9253 -2458 1270 105
7516 -2014 1294 62
6307 -1707 1311 104
8339 -2198 1286 84
6901 -1836 1307 102
5827 -1569 1315 96
9287 -2398 1270 108
7550 -1966 1295 100
6326 -1663 1310 103
8362 -2141 1285 79
6925 -1789 1307 107
5851 -1529 1316 95
9324 -2337 1271 109
7574 -1915 1295 101
6360 -1623 1313 106
8415 -2092 1288 57
6947 -1742 1306 107
5871 -1488 1316 92
9359 -2276 1271 104
7600 -1863 1295 103
6383 -1580 1313 103
8423 -2031 1285 94
6976 -1696 1307 111
5897 -1449 1318 94
9398 -2217 1271 104
7634 -1815 1296 102
6405 -1536 1313 104
8454 -1975 1285 94
7000 -1649 1308 114
5914 -1408 1317 93
9460 -2161 1275 98
7665 -1765 1297 99
6425 -1492 1313 98
8489 -1921 1286 95
7022 -1601 1308 120
5945 -1369 1320 98
9450 -2090 1270 95
7697 -1714 1298 95
6458 -1451 1316 101
8502 -1860 1284 95
7041 -1552 1307 111
5947 -1325 1317 44
9492 -2030 1271 104
7730 -1665 1300 96
6477 -1406 1316 102
8539 -1806 1286 93
7072 -1506 1309 100
5977 -1286 1319 92
9528 -1968 1272 97
7754 -1612 1300 102
6511 -1365 1319 37
8570 -1750 1286 98
7096 -1459 1309 105
6003 -1246 1321 102
9568 -1907 1273 104
7778 -1560 1300 104
6521 -1317 1317 100
8605 -1694 1288 99
7152 -1417 1316 71
6026 -1205 1323 102
9587 -1842 1271 86
7803 -1508 1300 104
6545 -1273 1318 102
8626 -1635 1287 102
7141 -1362 1310 108
6039 -1162 1322 95
9649 -1784 1276 109
7852 -1460 1305 89
6571 -1230 1320 104
8663 -1580 1289 101
7170 -1315 1312 110
6062 -1121 1323 101
9688 -1721 1277 108
7860 -1404 1303 98
6585 -1183 1319 108
8705 -1525 1291 102
7184 -1265 1311 111
6077 -1079 1323 98
9722 -1658 1278 109
7894 -1353 1305 100
6598 -1137 1319 108
8699 -1461 1287 58
7208 -1216 1312 118
6094 -1036 1324 90
9740 -1592 1277 109
7915 -1299 1305 100
6624 -1093 1321 106
8762 -1409 1293 104
7220 -1166 1311 103
6111 -994 1324 93
9762 -1526 1276 61
7937 -1246 1305 106
6639 -1047 1320 104
8779 -1349 1292 108
7231 -1116 1310 107
6137 -953 1327 89
9809 -1464 1279 109
7949 -1191 1304 102
6662 -1002 1322 106
8809 -1291 1293 107
4840 -711 875 5
6149 -909 1326 99
9842 -1399 1280 110
5070 -723 830 29
6680 -956 1323 114
8831 -1231 1293 109
4821 -674 869 3
6164 -866 1327 95
6720 -908 872 0
5048 -684 824 17
6696 -909 1323 113
8849 -1171 1293 115
4831 -641 869 6
6175 -823 1327 92
6716 -861 869 0
5072 -651 827 22
6714 -864 1324 112
8873 -1112 1294 116
4843 -607 870 1
6194 -780 1328 97
6733 -815 869 0
5063 -614 823 22
6723 -816 1323 108
8896 -1052 1295 119
4821 -570 864 3
6230 -739 1334 26
9963 -1137 1284 106
5080 -580 825 20
6754 -771 1327 26
8918 -992 1295 118
4828 -537 864 3
4261 -475 910 6
9977 -1069 1283 110
5084 -544 824 21
4570 -489 896 9
8931 -931 1295 115
4888 -508 873 8
0 0 0 0
9992 -1001 1283 116
5116 -512 827 29
4553 -455 891 21
8933 -869 1293 75
4854 -471 866 128
0 0 0 0
10026 -935 1285 26
5143 -478 830 37
0 0 0 0
6210 -560 897 29
4872 -438 868 150
4310 -387 917 97
6726 -581 860 83
5168 -444 833 48
4668 -399 911 100
6145 -511 886 50
4867 -403 865 150
0 0 0 0
6734 -534 860 25
5183 -409 834 44
4661 -366 909 79
6142 -469 885 46
4876 -369 866 150
4321 -326 917 128
6771 -491 863 108
5254 -378 845 150
4596 -328 895 36
6183 -428 889 135
4876 -335 865 150
4251 -290 901 107
6804 -447 866 150
5166 -336 830 150
4712 -303 916 110
6187 -386 889 150
4899 -302 868 151
4249 -259 899 132
6758 -397 860 79
5136 -298 824 130
4672 -267 908 74
6142 -341 881 61
4927 -269 872 150
4265 -230 902 116
6714 -348 853 44
5210 -266 835 140
4690 -235 911 112
6164 -299 884 55
4892 -233 865 123
4250 -199 898 61
6715 -302 852 32
5148 -227 824 62
4711 -203 914 59
9115 -380 1306 112
0 0 0 0
4303 -171 909 5
10192 -389 1293 108
5138 -191 822 46
6885 -248 1335 100
9117 -318 1305 112
4886 -164 863 18
6347 -207 1339 117
10550 -330 1337 66
5135 -155 821 19
6897 -199 1336 103
9129 -255 1306 109
4883 -130 862 12
6357 -162 1341 113
10378 -254 1314 155
5123 -119 819 18
7031 -154 1362 13
9148 -193 1308 115
4890 -96 862 6
6350 -117 1339 81
10380 -183 1314 154
5131 -84 819 16
7054 -105 1365 152
9165 -130 1309 105
4951 -63 873 6
6395 -72 1348 150
10386 -112 1314 153
5126 -48 818 18
7057 -55 1366 151
9163 -66 1309 114
4999 -28 881 6
6398 -27 1348 141
10386 -42 1313 153
5141 -13 821 15
7068 -6 1368 151
9169 -4 1309 109
4890 5 862 2
6404 18 1349 138
10433 29 1319 153
5144 22 821 11
7087 43 1371 153
9179 58 1310 116
4981 40 877 10
6450 63 1358 151
10430 99 1319 152
5137 57 820 10
7078 93 1369 151
9177 121 1310 110
4912 74 865 16
6400 108 1348 124
10421 170 1317 151
5131 93 819 9
7073 142 1368 151
9179 184 1310 114
4898 108 863 17
6390 153 1346 103
10475 243 1324 156
5137 128 820 6
7082 192 1370 150
9183 247 1311 110
4910 142 865 3
6393 198 1347 104
10452 313 1322 151
5151 164 822 11
7047 241 1364 152
9159 310 1308 50
4883 175 861 13
6453 246 1360 150
10470 385 1324 151
5131 199 819 4
7078 291 1370 145
9206 374 1315 109
4890 209 862 8
6387 289 1347 100
10377 453 1313 151
5120 234 818 4
7077 341 1371 105
9197 436 1315 116
4896 244 864 2
6384 334 1347 90
10453 527 1323 150
5136 270 821 9
7074 391 1371 98
9209 501 1317 106
4909 279 867 2
6372 379 1345 94
10581 605 1341 154
5131 305 821 6
7015 436 1361 150
9212 564 1318 108
4866 310 860 1
6400 425 1352 138
10494 673 1331 148
5121 340 820 5
7080 491 1374 73
9209 627 1319 110
4899 346 866 1
6435 473 1360 31
10493 744 1332 118
5121 373 820 4
7077 537 1374 62
9213 687 1320 108
4876 377 862 3
6369 511 1347 91
10488 810 1331 151
5119 409 820 4
7117 590 1383 126
9209 749 1320 106
4882 411 864 0
6362 555 1347 91
10381 873 1319 20
5130 445 823 5
7042 633 1369 37
9204 812 1321 104
4891 446 866 0
6368 601 1349 109
10362 942 1318 20
5146 482 826 5
7085 687 1379 46
9197 875 1321 106
4909 482 870 5
6364 646 1350 96
10423 1019 1327 36
5123 515 823 5
7089 737 1382 45
9256 944 1331 86
4895 515 869 0
6351 690 1349 97
10438 1093 1331 62
5145 554 828 7
7186 799 1402 152
9204 1002 1325 101
4899 550 871 0
6351 735 1350 95
10390 1158 1326 62
5123 587 825 5
7027 830 1373 23
9204 1067 1327 101
4905 585 873 0
6339 779 1349 99
10356 1226 1324 42
5116 622 825 6
7060 884 1381 29
9198 1129 1328 101
4900 619 873 1
6337 824 1351 96
10323 1293 1322 23
5145 661 831 7
7064 935 1384 25
9195 1192 1330 103
4910 654 877 0
6335 869 1353 97
10303 1361 1321 21
5115 693 828 5
7109 992 1395 75
9186 1256 1331 104
4930 692 881 0
6324 913 1352 93
10325 1435 1326 23
5121 729 830 5
6879 1008 1352 56
9172 1317 1331 106
4894 721 877 0
6315 957 1353 95
10330 1508 1329 85
5113 765 830 6
6902 1061 1359 56
9170 1380 1333 101
4890 755 877 0
6304 1001 1353 101
10278 1571 1325 108
5112 800 831 8
6841 1100 1349 96
9155 1442 1333 100
4945 799 889 8
6295 1045 1353 91
10275 1641 1327 104
5120 837 834 8
6834 1148 1350 93
9127 1501 1332 88
4944 834 890 0
6331 1097 1363 70
10267 1712 1328 109
5104 871 833 9
6828 1196 1351 96
9174 1573 1341 97
4895 860 883 0
6278 1133 1354 93
10273 1784 1332 105
5096 905 834 7
6817 1243 1352 94
9136 1631 1338 102
4922 900 890 9
6277 1179 1357 98
10261 1853 1333 107
5088 940 834 7
6811 1291 1354 95
9132 1695 1340 102
4919 935 891 0
6264 1222 1357 92
10236 1921 1333 94
5072 973 833 9
6798 1338 1354 95
9124 1757 1342 104
4879 962 885 0
6261 1267 1359 99
10180 1981 1328 39
5073 1009 835 7
6797 1387 1356 94
9109 1819 1343 103
4929 1007 896 0
6248 1310 1359 99
10005 2017 1308 18
5076 1046 837 8
6780 1432 1356 97
9104 1882 1345 104
7408 1568 1350 90
6238 1354 1360 95
9731 2031 1275 17
5066 1080 837 7
6773 1480 1357 94
9091 1944 1346 105
7411 1621 1354 80
6219 1395 1359 93
9492 2048 1247 17
5131 1131 850 8
6762 1527 1358 95
9062 2002 1345 91
7390 1670 1353 93
6219 1441 1362 101
9243 2059 1217 16
5092 1159 846 4
6746 1573 1359 96
9017 2057 1341 23
7394 1725 1357 90
6212 1486 1364 109
8998 2069 1188 16
5137 1206 855 7
6731 1619 1358 92
8827 2077 1316 16
7384 1776 1359 93
6195 1527 1363 101
8745 2072 1157 23
5082 1230 848 4
6739 1671 1363 74
8590 2082 1284 27
7374 1828 1360 93
6188 1572 1365 102
8525 2081 1131 38
5104 1272 854 3
6713 1713 1361 87
8376 2090 1255 38
7362 1879 1361 92
6168 1613 1364 101
8327 2093 1107 45
5129 1316 860 20
6698 1759 1362 89
8196 2105 1231 35
7343 1927 1361 92
6157 1656 1365 92
8127 2100 1083 47
5111 1348 859 6
6693 1808 1364 86
7988 2109 1203 36
7331 1979 1362 93
6166 1705 1370 75
7950 2112 1062 39
5138 1393 866 6
6678 1853 1364 85
7790 2113 1176 36
7321 2030 1363 94
6132 1742 1366 103
7756 2116 1039 44
5140 1431 868 5
6669 1901 1366 84
7637 2127 1155 48
7307 2080 1364 91
6119 1784 1367 97
7611 2131 1022 36
5164 1476 874 3
6658 1948 1367 85
7505 2145 1138 21
7263 2121 1359 52
6111 1828 1368 96
7477 2148 1007 20
5272 1545 895 32
6643 1993 1368 86
7357 2156 1119 22
7203 2158 1352 28
6107 1874 1371 96
7324 2157 988 23
5221 1569 888 0
6630 2039 1368 85
7192 2161 1096 23
7061 2168 1329 26
6095 1916 1372 96
7166 2163 970 24
5231 1611 892 0
6618 2086 1370 91
7055 2172 1078 23
6920 2176 1305 26
6081 1959 1372 96
7027 2172 953 23
5140 1621 879 5
6599 2130 1369 84
6909 2178 1059 23
6777 2183 1282 26
6067 2001 1373 98
6881 2177 936 24
5101 1647 875 0
6587 2176 1370 38
6771 2185 1040 25
6646 2190 1260 26
6057 2044 1375 99
6754 2187 921 25
0 0 0 0
6498 2197 1355 28
6651 2195 1024 24
6512 2196 1237 27
6045 2087 1375 100
6628 2195 906 27
0 0 0 0
6365 2201 1331 27
6516 2199 1006 25
6385 2202 1217 28
6031 2130 1376 106
6490 2198 889 27
6370 2200 1100 20
6249 2209 1310 28
6393 2205 989 25
6266 2208 1197 29
6011 2169 1375 85
6386 2210 877 26
6263 2211 1085 21
6126 2213 1288 29
6272 2211 973 24
6142 2212 1176 29
5996 2211 1375 37
6261 2213 861 29
6130 2210 1064 22
6012 2218 1267 30
6106 2198 949 21
6030 2218 1158 30
5913 2227 1360 33
5261 1899 725 21
6015 2215 1047 23
5914 2228 1249 31
6043 2222 941 23
5932 2227 1142 31
5801 2230 1337 33
6044 2227 835 30
5866 2205 1023 9
5810 2234 1230 32
5935 2226 927 22
5828 2233 1124 33
5697 2236 1317 33
5934 2232 822 30
5815 2230 1017 22
5701 2237 1210 34
5825 2230 912 22
5715 2235 1105 34
5591 2238 1295 34
5828 2235 809 27
5696 2228 998 22
5598 2241 1191 33
5683 2219 891 20
5618 2240 1089 34
5503 2247 1278 33
5735 2243 798 12
5578 2226 980 23
5512 2250 1176 34
5623 2238 884 22
5532 2249 1074 35
5414 2254 1260 35
5571 2221 776 0
5521 2245 972 23
5423 2256 1160 34
5526 2242 870 21
5446 2257 1060 37
5320 2258 1242 36
0 0 0 0
5337 2212 941 22
5331 2261 1142 36
5420 2241 855 14
5348 2258 1043 37
5226 2260 1223 35
0 0 0 0
5325 2249 941 25
5238 2263 1125 35
5200 2190 822 15
5261 2263 1028 38
5143 2266 1206 36
4297 1812 602 0
5247 2256 929 26
5166 2273 1112 36
5263 2258 833 7
5183 2271 1015 36
5057 2269 1188 34
5285 2269 741 36
5157 2258 914 33
5082 2277 1096 37
5185 2264 822 4
5104 2277 1002 37
4981 2275 1174 38
5202 2274 731 36
5092 2270 905 29
4992 2277 1079 36
5115 2274 812 12
5019 2279 987 38
4901 2279 1157 39
5119 2278 720 38
5015 2275 893 33
4911 2280 1064 37
5010 2266 797 9
4937 2281 973 39
4821 2281 1140 34
5033 2278 708 38
4936 2279 880 38
4830 2281 1048 36
4960 2283 790 38
4852 2281 958 37
4748 2286 1126 36
4953 2280 698 38
4873 2288 870 37
4763 2288 1035 36
4879 2283 778 36
4790 2290 947 38
4677 2291 1111 39
4887 2288 689 38
4793 2289 857 38
4690 2292 1022 37
4816 2292 769 37
4717 2293 934 39
4606 2294 1096 37
4813 2291 679 38
4724 2294 845 38
4621 2296 1008 36
4737 2292 757 37
4640 2294 920 38
4533 2295 1081 36
4738 2293 669 40
4650 2295 833 38
4553 2299 995 36
4675 2299 747 39
4575 2298 908 37
4466 2298 1066 36
4665 2294 659 42
4579 2297 821 36
4479 2299 980 36
4601 2299 736 38
4503 2298 895 36
4399 2300 1052 33
4598 2297 650 39
4518 2302 811 35
4413 2301 967 35
4522 2295 724 2
4443 2304 884 36
4333 2302 1038 35
4517 2292 639 2
4464 2310 802 35
4363 2311 957 36
4469 2304 716 2
4392 2313 874 36
4281 2311 1027 34
4502 2321 636 3
4399 2313 791 37
4299 2313 944 36
4414 2311 707 1
4324 2312 861 36
4220 2313 1013 33
4492 2351 634 3
4341 2317 780 37
4239 2316 932 33
4399 2339 704 1
4274 2321 852 35
4163 2317 1001 34
4485 2383 633 5
4278 2318 769 30
4180 2318 919 35
4322 2332 692 1
4208 2320 839 35
4101 2317 987 35
4519 2437 637 0
4202 2311 756 14
4127 2323 908 35
4405 2412 705 0
4154 2324 829 35
4049 2321 975 34
4568 2499 644 15
4139 2309 744 3
4069 2324 896 33
4574 2541 732 5
4092 2323 816 33
3988 2320 961 33
4570 2537 643 14
4078 2309 733 1
4008 2322 883 33
4574 2578 731 9
4036 2324 805 35
3934 2321 949 33
4569 2573 642 14
4039 2319 726 1
3969 2333 875 32
4051 2316 647 2
3994 2332 797 34
3895 2331 939 32
4053 2314 569 2
3972 2313 713 1
3921 2337 864 32
4048 2347 645 3
3942 2335 786 34
3843 2332 928 32
4045 2342 566 3
3967 2342 711 1
3868 2337 852 33
4030 2368 642 3
3893 2337 776 33
3795 2335 916 32
4024 2362 562 4
3946 2362 707 1
3821 2341 841 31
4024 2397 639 3
3832 2332 763 20
3748 2338 904 32
4025 2395 561 3
3930 2384 703 1
3772 2342 830 32
4009 2421 636 14
3770 2325 750 5
3708 2344 895 29
4015 2420 558 16
3942 2423 704 5
3721 2341 818 33
3956 2420 626 16
3726 2328 740 1
3659 2344 882 29
3952 2414 547 17
3893 2424 694 13
3674 2342 807 33
3910 2423 617 15
3673 2325 728 1
3616 2346 871 30
3905 2416 539 18
3850 2428 685 19
3630 2343 796 31
3859 2422 607 16
3633 2329 719 1
3571 2346 860 29
3871 2425 532 17
3804 2429 675 17
3587 2345 786 30
3826 2432 600 20
3603 2339 712 0
3529 2348 849 29
3830 2429 524 18
3754 2428 664 16
3545 2346 776 29
3777 2430 590 18
3602 2367 710 0
3483 2345 836 28
3781 2428 515 19
3715 2432 656 14
3493 2340 763 17
3735 2433 582 14
3575 2378 703 1
3460 2359 830 28
3747 2435 508 18
3674 2434 646 14
3442 2333 750 3
3693 2434 573 15
3583 2411 703 1
3418 2358 818 28
3703 2436 499 17
3630 2433 636 17
3429 2352 745 1
3653 2435 564 15
3586 2442 701 9
3375 2355 806 28
3663 2437 491 19
3591 2435 627 16
3379 2345 732 1
3616 2439 555 18
3534 2434 689 20
3336 2355 795 30
3617 2434 482 19
3551 2435 617 16
3352 2352 724 1
3573 2437 546 18
3497 2436 679 19
3308 2361 786 29
3579 2436 474 19
3513 2436 608 19
3306 2345 712 0
3539 2441 538 18
3460 2436 669 17
3273 2362 775 26
3541 2437 465 20
3489 2446 601 21
3330 2388 714 1
3501 2442 529 21
3428 2440 660 17
3241 2364 765 11
3510 2442 458 23
3453 2447 591 20
3300 2392 705 1
3468 2444 520 19
3397 2444 651 13
3202 2360 753 1
3488 2452 451 21
3413 2444 581 17
3307 2422 704 1
3428 2441 511 19
3360 2442 641 14
3168 2358 743 1
3457 2455 443 20
3387 2450 573 15
3319 2456 703 8
3395 2443 502 16
3329 2444 631 16
3141 2362 733 1
3419 2453 434 18
3349 2447 563 17
3282 2452 692 16
3374 2452 495 17
3301 2447 622 14
3122 2370 726 1
3384 2452 426 18
3323 2452 555 20
3236 2441 679 5
3344 2454 486 18
3272 2449 613 17
3083 2363 713 4
3353 2453 418 18
3292 2452 546 17
3104 2364 647 1
3321 2460 479 19
3204 2421 596 4
3068 2373 706 29
3322 2454 409 23
3260 2450 536 18
3070 2359 636 9
3283 2455 469 19
3091 2356 571 1
3041 2374 696 28
3293 2454 401 22
3116 2363 508 1
3071 2381 633 31
3250 2452 460 13
3065 2357 562 15
3022 2379 688 28
3263 2454 392 19
3084 2360 498 2
3050 2384 624 31
3100 2359 434 2
3074 2384 559 34
3000 2382 678 28
3125 2371 371 2
3076 2374 493 34
3020 2381 614 31
3073 2358 425 3
3046 2383 550 32
2976 2382 669 28
3092 2366 362 2
3058 2380 485 35
2999 2383 604 32
3072 2377 420 42
3023 2383 541 34
2956 2384 660 27
3062 2362 354 16
3041 2385 477 35
2978 2385 596 31
3053 2381 412 36
2996 2380 531 33
2934 2384 650 28
3057 2377 348 39
3017 2384 468 33
2958 2386 587 32
3031 2382 404 36
2984 2388 524 34
2914 2384 640 28
3040 2382 340 38
2994 2383 459 34
2944 2392 579 31
3010 2383 396 37
2959 2385 514 33
2901 2390 632 29
3020 2383 332 38
2975 2385 451 34
2921 2389 569 31
2988 2382 387 36
2943 2388 506 33
2879 2387 622 29
2997 2382 324 38
2952 2383 442 34
2903 2390 560 31
2969 2383 379 37
2924 2389 497 34
2863 2389 613 29
2980 2385 316 39
2935 2384 433 36
2882 2387 550 32
2957 2389 372 38
2907 2389 488 35
2845 2388 604 29
2956 2381 308 38
2918 2385 425 36
2870 2392 542 33
2938 2389 363 37
2886 2386 479 37
2831 2389 594 29
2940 2383 300 40
2901 2385 417 38
2851 2389 532 34
2921 2389 355 38
2869 2385 470 37
2815 2388 585 30
2926 2385 292 41
2885 2385 408 38
2834 2387 523 35
2906 2390 347 39
2859 2389 462 37
2803 2390 576 31
2907 2383 284 40
2869 2385 400 38
2826 2391 515 35
2889 2388 338 42
2846 2389 453 39
2799 2397 569 32
2897 2387 277 43
2858 2387 392 39
2812 2390 506 35
2874 2387 330 41
2828 2386 444 38
2783 2393 559 35
2881 2386 268 43
2844 2385 383 40
2801 2391 497 36
2863 2389 322 45
2818 2387 436 38
2774 2394 551 34
2867 2385 260 46
2833 2387 375 39
2791 2392 489 37
2848 2387 313 46
2807 2387 427 39
2761 2391 541 35
2853 2384 252 44
2825 2389 367 40
2781 2391 480 37
2838 2388 306 46
2799 2388 419 40
2756 2394 533 33
2843 2385 244 45
2816 2390 358 42
2774 2392 472 36
2832 2391 298 47
2791 2389 411 41
2747 2393 524 35
2832 2384 236 43
2806 2389 350 43
2768 2394 464 36
2823 2392 290 47
2784 2390 402 41
2740 2393 515 36
2825 2386 228 44
2798 2388 342 42
2760 2393 455 36
2816 2393 282 46
2779 2391 394 39
2731 2390 507 34
2819 2388 220 43
2791 2389 334 40
2754 2392 446 36
2810 2394 274 47
2770 2389 386 40
2729 2391 499 34
2811 2387 212 42
2788 2391 326 39
2752 2394 439 36
2796 2387 265 41
2766 2390 378 40
2725 2391 490 32
2805 2387 205 40
2779 2387 317 39
2748 2394 430 35
2791 2387 257 42
2763 2390 370 39
2724 2392 482 31
2803 2390 197 39
2782 2394 310 40
2747 2395 422 35
2792 2392 250 39
2763 2392 362 38
2723 2392 474 31
2799 2391 189 39
2775 2390 302 38
2749 2398 415 34
2786 2389 241 38
2759 2390 354 36
2727 2396 467 30
2797 2391 181 38
2773 2390 294 38
2744 2394 406 33
2785 2390 234 39
2764 2396 347 35
2726 2395 459 29
2796 2393 173 37
2776 2393 286 36
2748 2397 399 32
2792 2397 227 38
2763 2394 339 35
2730 2396 451 28
2794 2392 166 37
2776 2394 279 36
2748 2395 391 31
2785 2391 218 36
2764 2395 331 35
2730 2394 443 28
2794 2392 158 37
2775 2391 271 35
2747 2393 383 29
2793 2397 211 35
2768 2396 323 34
2734 2394 435 27
2796 2393 150 37
2782 2395 263 34
2754 2395 375 30
2791 2394 203 35
2771 2395 316 34
2743 2399 429 29
2798 2394 143 37
2783 2394 256 34
2759 2396 368 31
2798 2398 195 35
2772 2393 308 34
2746 2396 421 29
2800 2393 135 35
2786 2393 248 34
2767 2398 361 30
2800 2396 188 35
2780 2395 301 33
2751 2394 413 29
2802 2392 127 36
2790 2392 240 35
2771 2396 353 30
2802 2394 180 35
2783 2393 293 33
2759 2394 406 30
2804 2390 120 37
2796 2392 233 34
2776 2393 346 30
2813 2398 173 34
2794 2396 286 34
2769 2396 399 30
2812 2391 112 36
2804 2393 226 35
2781 2391 338 30
2819 2398 166 35
2798 2392 278 34
2774 2392 392 31
2818 2391 104 36
2811 2392 218 35
2793 2393 332 31
2822 2394 158 34
2808 2393 271 34
2789 2396 386 31
2823 2389 97 28
2821 2393 211 34
2805 2394 325 32
2828 2391 150 26
2814 2390 264 34
2794 2390 378 31
2833 2390 89 5
2830 2392 204 33
2818 2396 318 32
2838 2392 143 6
2828 2392 257 34
2810 2394 372 31
2837 2385 82 19
2846 2396 197 25
2833 2398 312 32
2836 2381 135 15
2840 2392 251 35
2819 2390 365 31
2848 2386 75 14
2845 2385 189 17
2842 2395 305 33
2863 2394 129 10
2852 2392 244 35
2834 2390 359 31
2852 2380 67 10
2850 2379 182 16
2853 2392 298 33
2868 2387 122 11
2869 2394 237 34
2856 2396 353 31
2872 2386 60 19
2868 2382 175 31
2873 2396 292 33
2879 2385 114 22
2881 2391 231 36
2867 2391 347 30
2889 2388 54 22
2882 2382 169 16
2882 2390 285 35
2893 2385 108 18
2892 2387 223 35
2884 2392 341 32
2894 2380 46 9
2902 2386 163 11
2906 2396 280 33
2913 2389 101 9
2911 2389 217 34
2898 2388 334 32
2914 2385 39 8
2907 2376 155 6
2917 2390 273 32
2923 2383 94 15
2925 2387 211 35
2918 2389 329 32
2936 2389 33 10
2932 2382 149 3
2943 2396 268 33
2947 2389 88 17
2952 2393 205 33
2939 2390 323 32
2938 2377 25 8
2951 2382 143 3
2956 2391 261 35
2946 2374 80 4
2977 2398 200 27
2958 2389 318 34
2967 2386 19 21
2973 2384 137 3
2976 2390 255 35
2979 2385 74 3
2970 2376 192 15
2974 2384 312 34
2990 2389 12 34
2987 2380 130 3
2996 2389 250 35
2994 2381 68 2
2992 2376 186 5
2998 2385 307 32
3008 2387 5 39
3009 2380 124 11
3019 2389 245 36
3026 2390 62 37
3027 2386 181 37
3018 2383 301 34
3026 2384 0 40
3036 2383 118 36
3035 2383 238 36
3043 2385 55 38
3046 2383 175 36
3044 2383 297 34
3046 2383 -7 39
3057 2382 112 39
3055 2380 233 37
3067 2386 49 51
3062 2377 169 41
3063 2379 291 38
3062 2378 -13 48
3060 2366 106 13
3064 2367 227 12
3058 2361 42 14
3058 2355 162 10
3076 2368 285 4
3070 2365 -20 4
3088 2368 100 2
3089 2366 221 2
3092 2368 37 2
3095 2363 158 2
3092 2360 280 2
3099 2369 -26 2
3121 2374 95 2
3139 2384 218 2
3171 2409 31 3
3253 2462 159 10
3234 2446 285 5
3251 2464 -34 19
3259 2457 93 20
3264 2457 220 20
3273 2465 26 23
3277 2459 153 23
3274 2454 282 22
3271 2459 -40 23
3284 2454 87 22
3292 2455 215 22
3294 2459 20 22
3301 2454 148 24
3300 2451 277 19
3297 2457 -46 26
3314 2454 81 23
3327 2458 211 22
3322 2458 14 26
3330 2453 143 25
3332 2451 273 19
3330 2459 -53 26
3349 2458 76 26
3350 2452 206 21
3354 2458 8 24
3360 2452 138 24
3360 2447 269 20
3360 2458 -59 28
3380 2457 71 24
3383 2451 201 21
3382 2456 2 25
3387 2448 133 21
3399 2451 265 20
3387 2455 -65 27
3407 2453 65 25
3412 2448 197 16
3416 2457 -2 22
3428 2453 128 25
3429 2447 261 20
3419 2454 -71 23
3437 2450 60 21
3447 2448 193 19
3437 2448 -8 21
3455 2447 123 22
3451 2438 257 22
3449 2452 -77 25
3476 2453 55 26
3487 2451 189 21
3471 2447 -14 24
3490 2447 119 46
3492 2441 254 19
3479 2449 -83 24
3509 2451 50 45
3501 2436 184 19
3505 2446 -19 24
3527 2447 115 44
3522 2435 250 22
3521 2453 -89 28
3545 2450 45 31
3547 2441 180 18
3542 2446 -24 24
3562 2445 110 44
3561 2436 247 19
3540 2440 -94 24
3583 2451 41 31
3577 2435 176 20
3575 2443 -29 24
3602 2446 106 43
3594 2431 243 17
3577 2440 -100 22
3621 2450 36 34
3624 2440 173 24
3612 2442 -35 23
3624 2433 101 43
3635 2431 240 19
3614 2438 -105 23
3643 2437 31 36
3660 2437 170 29
3652 2442 -40 21
3666 2435 98 40
3682 2434 238 19
3652 2437 -111 24
3688 2440 27 34
3701 2435 166 29
3690 2439 -45 22
3705 2432 94 40
3714 2427 235 17
3694 2437 -117 23
3724 2436 22 48
3737 2431 163 18
3733 2439 -50 20
3750 2433 90 20
3758 2427 232 17
3731 2434 -122 23
3762 2432 18 19
3786 2434 160 22
3768 2434 -54 19
3791 2431 86 21
3803 2427 230 21
3779 2437 -128 20
3807 2433 14 19
3823 2428 157 22
3815 2435 -59 22
3833 2429 82 18
3837 2420 227 16
3826 2438 -133 25
3848 2429 10 18
3870 2429 154 16
3851 2430 -64 19
3880 2429 79 16
3894 2425 225 17
3866 2434 -138 22
3891 2427 5 18
3908 2423 151 15
3887 2423 -68 17
3915 2422 76 16
3938 2422 223 15
3903 2427 -143 18
3940 2427 2 18
3954 2421 148 16
3940 2426 -73 19
3965 2422 72 17
3982 2419 221 16
3954 2429 -148 22
3979 2422 -1 19
4007 2422 146 23
3983 2422 -77 21
4007 2416 69 18
4039 2422 220 7
3998 2425 -153 19
4026 2419 -5 12
4038 2411 143 3
4028 2419 -82 27
4036 2404 66 3
4021 2380 215 3
4030 2414 -158 4
4014 2381 -8 4
4024 2371 139 3
4048 2399 -86 4
4029 2368 62 23
4036 2358 212 5
4026 2381 -161 3
4041 2366 -12 6
4037 2347 135 4
4036 2362 -88 18
4035 2341 59 3
4045 2332 208 3
4037 2356 -164 8
4028 2328 -15 3
4055 2327 132 2
4045 2336 -92 3
4062 2325 56 2
4092 2327 207 2
4030 2322 -166 6
4096 2336 -18 2
4597 2602 146 14
4082 2325 -95 2
4591 2593 59 13
4564 2561 227 12
4587 2607 -192 12
4585 2579 -24 14
4581 2558 142 13
4573 2570 -110 13
4579 2551 56 14
4563 2525 223 12
4570 2562 -194 13
4569 2535 -27 12
4571 2518 138 13
4559 2528 -112 12
4567 2509 53 12
4572 2495 219 12
4565 2524 -196 13
4567 2499 -30 12
4569 2481 135 12
4573 2500 -115 13
4506 2441 49 0
4500 2421 212 4
4566 2490 -199 12
4485 2420 -32 4
4498 2409 129 8
4495 2423 -116 7
4507 2408 46 42
4483 2378 208 3
4474 2405 -197 6
4475 2381 -35 6
4497 2374 126 4
4500 2392 -118 4
4491 2365 43 4
4510 2358 206 11
4482 2375 -199 4
4476 2347 -37 5
4489 2335 123 23
4475 2344 -120 38
4492 2331 40 6
4496 2316 203 3
4488 2344 -201 7
4495 2323 -39 3
4508 2311 121 6
4494 2320 -122 4
4510 2306 38 4
4520 2294 201 1
4498 2315 -204 4
4531 2307 -42 1
4577 2312 120 34
4518 2298 -125 1
4570 2302 36 35
4594 2297 202 33
4553 2309 -208 23
4593 2304 -45 39
4624 2300 119 34
4611 2310 -129 40
4638 2301 35 38
4659 2295 202 30
4613 2305 -212 41
4657 2301 -47 37
4691 2298 118 31
4674 2307 -132 38
4697 2296 33 35
4723 2290 202 29
4686 2305 -217 44
4730 2301 -50 36
4761 2297 118 30
4742 2304 -136 37
4775 2298 32 36
4790 2287 202 28
4688 2271 -218 20
4799 2298 -52 36
4824 2291 117 29
4801 2297 -139 36
4850 2297 30 33
4855 2282 203 27
4683 2233 -219 19
4866 2294 -54 36
4903 2292 117 31
4880 2298 -143 37
4914 2291 29 35
4932 2281 204 29
4713 2212 -221 29
4945 2294 -57 36
4966 2284 117 28
4936 2287 -145 36
4978 2284 28 35
4999 2275 205 27
4721 2180 -223 47
5002 2283 -59 34
5039 2280 116 29
5017 2287 -149 35
5043 2276 26 33
5076 2272 206 28
5030 2285 -238 38
5086 2284 -61 35
5112 2275 117 28
5094 2285 -152 30
5133 2279 25 32
5161 2272 207 27
5109 2283 -243 38
5166 2281 -64 32
5199 2276 117 28
5172 2281 -156 33
5212 2275 24 31
5231 2264 208 25
4383 1926 -208 0
5241 2276 -65 31
5262 2265 117 22
5258 2280 -159 33
4447 1908 20 0
4308 1833 170 1
0 0 0 0
4285 1829 -54 1
4278 1810 94 1
4286 1827 -130 1
4277 1804 18 0
0 0 0 0
4289 1821 -205 2
4313 1809 -55 0
4347 1807 94 0
4359 1826 -133 0
4368 1811 18 0
0 0 0 0
0 0 0 0
4431 1827 -57 0
4389 1793 94 0
4425 1821 -135 0
4422 1801 17 0
4490 1812 173 0
0 0 0 0
4492 1819 -59 0
4518 1813 96 0
4490 1815 -138 0
4499 1799 16 0
4546 1802 174 0
0 0 0 0
4563 1815 -60 0
4558 1796 96 0
4543 1804 -140 0
4584 1800 16 0
4620 1798 176 0
0 0 0 0
4632 1808 -62 0
4593 1776 96 0
4615 1798 -142 0
4666 1798 16 0
0 0 0 0
0 0 0 0
4738 1816 -63 0
4733 1796 98 0
4726 1807 -146 0
4729 1789 16 0
12116 4542 458 0
6506 2476 -312 0
4806 1807 -65 0
4784 1781 98 0
4800 1801 -148 0
4818 1788 15 0
4858 1786 183 0
6553 2446 -314 0
4881 1800 -66 0
4920 1797 100 0
4900 1803 -151 0
4953 1802 15 0
12098 4363 453 0
6553 2399 -313 0
4998 1808 -68 0
4982 1785 101 0
4965 1791 -153 0
5012 1789 15 0
12070 4271 451 0
6553 2354 -313 0
5020 1782 -68 0
5060 1780 102 0
5050 1792 -156 0
5086 1786 15 0
5075 1767 189 0
6599 2334 -315 0
5063 1770 -69 0
5100 1767 103 0
5110 1785 -157 0
5156 1782 15 0
5181 1775 192 0
6584 2292 -314 0
5161 1776 -70 0
5192 1770 104 0
5193 1785 -160 0
5220 1776 15 0
5192 1751 192 0
6587 2257 -314 0
5262 1782 -72 0
5248 1761 105 0
5303 1794 -163 0
5298 1774 15 0
5289 1755 195 0
6608 2228 -314 0
5322 1774 -72 0
5350 1767 107 0
5424 1805 -167 0
5333 1756 16 0
11996 3917 443 0
6623 2197 -315 0
5365 1759 -73 0
12069 3920 241 0
5425 1776 -166 0
5448 1765 16 0
12094 3884 445 0
12101 3948 -574 0
5485 1768 -74 0
12021 3840 240 0
5523 1778 -169 0
5518 1758 16 0
12072 3812 444 0
12056 3868 -571 0
5588 1772 -76 0
12052 3786 241 0
5626 1781 -172 0
12052 3776 35 0
12014 3730 442 0
12065 3806 -571 0
5636 1756 -76 0
12056 3722 240 0
6234 1940 -190 0
12056 3712 36 0
12089 3689 444 0
6662 2065 -314 0
12042 3688 -163 0
12053 3657 240 0
6684 2044 -203 3
12037 3642 35 0
12073 3620 442 0
6692 2038 -315 3
12029 3620 -162 0
12042 3590 240 0
6699 2012 -204 5
11986 3563 35 0
12103 3564 444 0
6712 2008 -315 5
5967 1764 -80 0
5994 1755 119 0
6693 1975 -203 2
5994 1750 18 12
6000 1735 219 53
6551 1925 -307 9
5992 1739 -80 60
7105 2043 141 0
6523 1890 -197 3
7516 2154 22 14
7205 2046 263 3
6524 1882 -305 3
6533 1861 -87 2
7626 2152 152 19
6518 1854 -197 3
7636 2148 23 28
7646 2131 280 38
6516 1845 -304 0
6522 1824 -86 5
7685 2128 153 31
6564 1832 -197 9
7756 2141 24 26
7755 2120 283 28
6540 1817 -304 14
6585 1807 -87 9
7809 2121 155 29
6868 1880 -206 1
7865 2129 24 29
7889 2116 288 23
6893 1878 -320 0
6679 1797 -88 0
7943 2116 158 24
6902 1853 -206 0
8008 2126 25 18
8061 2120 295 19
6892 1841 -319 0
6843 1805 -89 5
8123 2121 162 21
6921 1822 -206 0
8144 2120 26 25
8200 2113 299 27
6930 1815 -320 0
6978 1804 -90 59
8232 2107 164 33
6932 1788 -206 1
8276 2110 27 25
8342 2107 305 24
6920 1775 -319 0
8335 2111 -108 14
8371 2099 167 30
6884 1739 -204 1
8416 2102 28 21
8471 2095 310 25
6880 1728 -316 0
8480 2104 -109 14
8512 2090 171 19
6845 1694 -202 1
8578 2098 29 15
8641 2092 316 12
6718 1653 -308 1
8629 2096 -110 14
8710 2094 175 13
6832 1655 -201 1
8723 2088 30 14
8783 2082 321 12
6699 1613 -306 3
8783 2087 -112 13
8851 2082 178 13
6807 1613 -200 1
8887 2081 31 13
8958 2077 328 12
6755 1591 -308 0
8934 2077 -113 13
9020 2075 182 13
6776 1570 -198 1
9055 2074 32 13
9139 2071 334 12
6763 1557 -308 6
9118 2072 -114 13
9189 2066 185 13
6738 1526 -196 2
9218 2063 33 13
9305 2061 341 11
6735 1516 -305 3
9295 2064 -116 13
9370 2059 189 12
6730 1489 -195 1
9406 2057 34 12
9462 2048 347 11
6708 1474 -304 3
9466 2053 -117 12
9553 2050 194 11
6685 1445 -193 2
9582 2047 35 12
9661 2041 354 11
6696 1437 -302 4
9655 2044 -119 12
9726 2037 197 11
6683 1410 -193 2
9784 2039 37 12
9852 2031 361 10
6666 1396 -300 5
9858 2036 -121 12
9932 2030 202 11
6665 1372 -191 4
9971 2027 38 12
10044 2020 369 10
6652 1358 -299 16
10052 2025 -122 11
10132 2019 207 10
9068 1819 -260 55
10179 2018 39 12
10264 2011 377 9
7588 1511 -340 77
9672 1899 -117 5
10344 2008 211 10
9074 1774 -259 1
10382 2004 41 11
10462 1997 385 9
7665 1486 -342 11
9062 1732 -109 16
10561 1997 216 10
6611 1258 -188 0
10611 1994 42 11
10682 1986 393 10
6597 1245 -294 62
9066 1687 -108 129
10777 1983 221 9
6594 1221 -187 63
