# .PCD v0.7 - Point Cloud Data file format
VERSION 0.7
FIELDS x y z intensity
SIZE 4 4 4 4
TYPE F F F F
COUNT 1 1 1 1
WIDTH 2721
HEIGHT 1
VIEWPOINT 0 0 0 1 0 0 0
POINTS 2721
DATA ascii
6893 731 -984 31
6738 738 -1539 6
7980 848 -1544 2
7120 736 -1135 3
7324 768 -1545 5
6305 642 -1113 38
6985 691 -996 28
6704 686 -1529 6
7557 749 -1460 3
7094 684 -1129 8
7282 711 -1534 5
6299 597 -1110 39
6915 637 -985 31
6694 636 -1525 6
7146 657 -1379 3
7270 650 -1156 71
6883 623 -1448 1
6297 552 -1108 40
6824 581 -970 40
6653 584 -1514 6
7188 610 -1385 3
9685 798 -1538 3
7206 600 -1514 5
6308 509 -1109 40
6640 519 -943 94
6622 533 -1505 6
7170 558 -1380 3
6666 503 -1057 103
7182 547 -1507 5
6299 464 -1106 41
6372 454 -904 51
6603 484 -1499 6
7166 506 -1378 1
6344 434 -1005 50
7143 493 -1498 6
6303 420 -1106 39
6313 406 -895 57
6573 435 -1491 6
6427 409 -1235 48
6311 388 -999 57
6604 408 -1383 129
6293 375 -1103 38
6918 397 -979 59
6490 382 -1471 12
6320 357 -1213 54
6920 377 -1094 53
6323 346 -1323 51
6911 363 -1210 52
6879 347 -973 0
6315 327 -1430 48
6435 318 -1234 5
9436 448 -1491 2
6907 329 -1445 42
6890 314 -1206 3
10490 458 -1483 3
6484 289 -1467 8
7674 325 -1471 4
9341 379 -1475 4
7005 283 -1464 6
8418 324 -1472 5
10428 383 -1473 3
6464 242 -1462 7
7629 270 -1462 5
9296 313 -1467 5
6979 233 -1458 6
8383 265 -1466 5
10188 304 -1438 5
6430 194 -1454 7
7590 215 -1453 5
9214 246 -1454 4
6947 183 -1451 5
8326 205 -1455 4
10275 236 -1450 3
6405 148 -1447 7
7539 160 -1443 5
9145 181 -1442 5
6913 132 -1443 6
8280 145 -1446 4
10183 163 -1437 3
6368 101 -1439 7
7505 107 -1436 7
9105 117 -1435 4
6884 83 -1437 6
8221 87 -1436 6
10097 93 -1424 2
6329 55 -1429 7
7447 53 -1425 10
9030 53 -1423 4
6847 34 -1429 6
8183 30 -1429 5
10034 23 -1415 3
6305 10 -1424 8
7411 1 -1418 9
8998 -8 -1418 5
6807 -14 -1420 6
8123 -27 -1419 5
9953 -45 -1404 3
6272 -34 -1417 7
7391 -50 -1414 9
8927 -70 -1407 4
6769 -61 -1413 6
8061 -82 -1408 4
9880 -112 -1394 3
6239 -79 -1409 8
7308 -101 -1399 7
8874 -131 -1399 5
6737 -109 -1406 6
7999 -138 -1397 5
9797 -179 -1382 3
6218 -123 -1405 7
7302 -153 -1398 7
8820 -192 -1391 4
6685 -156 -1396 6
7962 -193 -1391 5
9713 -244 -1371 3
6173 -167 -1395 7
7252 -202 -1389 6
8739 -251 -1379 4
6650 -203 -1389 6
7904 -247 -1381 4
9645 -310 -1362 3
6137 -210 -1387 7
7210 -252 -1381 6
8676 -309 -1369 4
6615 -248 -1382 6
7857 -300 -1374 5
9584 -373 -1354 3
6106 -253 -1381 7
7156 -301 -1371 5
8611 -367 -1360 4
6598 -295 -1379 6
7793 -352 -1364 4
8987 -412 -1270 1
6071 -294 -1374 7
7101 -348 -1362 5
8546 -423 -1350 5
6565 -340 -1373 6
7741 -404 -1355 5
8752 -462 -1238 6
6030 -336 -1366 7
7063 -396 -1355 5
8506 -480 -1345 4
6512 -384 -1363 6
7706 -456 -1350 7
8678 -518 -1228 8
6002 -378 -1360 7
7010 -443 -1346 6
8441 -536 -1336 5
6440 -425 -1349 7
7640 -506 -1340 5
8700 -579 -1233 5
5968 -418 -1354 7
6972 -490 -1340 6
6408 -451 -1015 0
6411 -469 -1344 7
7591 -556 -1333 5
6442 -474 -914 0
5935 -459 -1348 8
6926 -536 -1333 6
6224 -481 -987 0
6368 -512 -1337 7
7520 -604 -1322 6
6316 -508 -897 0
5898 -499 -1341 7
6869 -580 -1323 6
6151 -519 -977 0
6323 -553 -1329 7
7492 -654 -1318 5
6747 -589 -959 0
5872 -539 -1336 7
6828 -625 -1317 6
5998 -548 -954 0
6288 -595 -1323 7
6517 -615 -1148 2
6981 -659 -994 24
5835 -577 -1330 7
6775 -668 -1308 6
6259 -615 -996 17
6241 -635 -1315 7
5936 -602 -1047 0
6111 -619 -871 79
5798 -616 -1323 7
6712 -711 -1298 6
6076 -640 -969 17
6202 -676 -1309 7
5814 -631 -1027 0
6614 -716 -945 19
5759 -654 -1316 7
6686 -755 -1295 6
6239 -701 -996 15
6164 -717 -1302 7
5708 -660 -1010 5
6615 -762 -946 17
5733 -692 -1312 7
6636 -797 -1287 6
6280 -750 -1004 56
6124 -756 -1296 7
6886 -845 -1220 12
6561 -802 -940 105
5695 -730 -1305 7
6577 -837 -1278 6
5822 -736 -933 2
6085 -795 -1290 7
6876 -893 -1221 11
6460 -835 -927 9
5659 -766 -1299 7
6551 -881 -1275 7
5720 -764 -918 14
6052 -835 -1285 7
5728 -784 -1019 8
5932 -808 -853 4
5620 -802 -1293 7
6515 -923 -1270 7
5726 -805 -921 15
6019 -874 -1281 7
5731 -826 -1021 9
5742 -823 -827 3
5599 -841 -1290 7
6452 -960 -1260 7
5862 -866 -944 11
5974 -911 -1273 7
5714 -864 -1020 16
5713 -859 -825 5
5560 -875 -1284 7
6409 -1001 -1255 7
5878 -910 -949 7
5930 -948 -1267 7
5724 -907 -1024 8
5735 -903 -830 3
5519 -910 -1277 7
6059 -990 -1189 67
5709 -925 -924 19
5911 -988 -1265 7
5851 -969 -1049 5
6028 -992 -874 15
5487 -945 -1272 6
6060 -1034 -1191 141
5717 -967 -927 26
5859 -1022 -1257 7
6833 -1181 -1228 5
6075 -1043 -883 63
5451 -980 -1267 6
6052 -1077 -1192 56
6053 -1067 -984 51
5825 -1059 -1252 7
6781 -1222 -1221 5
6072 -1086 -885 53
5400 -1010 -1258 7
6232 -1154 -1231 7
5996 -1100 -977 22
5787 -1095 -1247 7
6728 -1261 -1215 5
6084 -1131 -889 60
5368 -1045 -1253 13
6193 -1193 -1226 6
6607 -1260 -1079 8
5739 -1129 -1240 6
6690 -1302 -1211 6
6087 -1175 -892 53
5337 -1079 -1249 15
6150 -1230 -1220 7
5785 -1145 -947 2
5703 -1164 -1235 7
6627 -1339 -1202 5
6040 -1209 -887 7
5318 -1115 -1248 15
6103 -1265 -1214 7
5802 -1191 -953 3
5668 -1199 -1230 6
6582 -1378 -1197 6
5799 -1203 -854 10
5281 -1147 -1242 7
6057 -1301 -1208 7
5812 -1235 -957 2
5618 -1231 -1223 6
6529 -1415 -1191 6
5801 -1246 -857 7
5240 -1178 -1236 7
6016 -1337 -1203 6
5782 -1271 -954 2
5585 -1266 -1219 7
6478 -1452 -1184 6
5817 -1291 -861 8
5195 -1207 -1228 6
5976 -1372 -1198 8
5935 -1348 -982 0
5540 -1297 -1212 6
6424 -1487 -1178 5
5815 -1333 -864 12
5160 -1239 -1223 6
5912 -1402 -1189 7
7143 -1675 -1186 3
5499 -1329 -1206 6
6376 -1523 -1173 6
5810 -1375 -865 14
5122 -1269 -1218 6
5863 -1434 -1182 6
6965 -1685 -1159 3
5464 -1363 -1202 6
6325 -1558 -1166 6
5806 -1416 -868 15
5081 -1298 -1211 6
5841 -1473 -1181 6
6822 -1701 -1139 3
5423 -1394 -1197 7
6273 -1593 -1160 6
5810 -1460 -871 20
5040 -1327 -1205 6
5791 -1505 -1174 6
6845 -1757 -1146 1
5376 -1423 -1190 9
6212 -1624 -1152 8
5867 -1518 -882 13
5003 -1355 -1200 6
5749 -1537 -1169 6
6725 -1777 -1130 0
5345 -1456 -1186 11
6149 -1654 -1144 7
5875 -1563 -886 4
4979 -1388 -1198 6
5700 -1568 -1163 6
5991 -1628 -1010 52
5320 -1490 -1184 12
6113 -1690 -1141 10
6060 -1658 -917 3
4930 -1413 -1189 8
5663 -1601 -1159 6
5994 -1674 -1013 64
5270 -1517 -1177 7
5997 -1704 -1123 113
5981 -1682 -908 129
4884 -1438 -1182 13
5630 -1635 -1156 6
5994 -1720 -1016 116
5228 -1546 -1171 6
5992 -1749 -1125 85
5982 -1726 -911 124
4863 -1471 -1181 15
5581 -1664 -1150 6
5990 -1764 -1019 123
5184 -1573 -1165 6
5988 -1794 -1128 64
5978 -1771 -913 119
4832 -1500 -1177 12
5530 -1693 -1143 6
6446 -1947 -1100 5
5145 -1602 -1160 6
5921 -1819 -1119 7
6780 -2059 -1039 28
4794 -1526 -1172 6
5480 -1720 -1136 6
6402 -1983 -1096 6
5102 -1630 -1154 6
5888 -1855 -1116 6
6806 -2119 -1047 12
4760 -1554 -1167 6
5436 -1749 -1131 6
6345 -2014 -1090 5
5066 -1658 -1150 6
5844 -1887 -1112 6
6705 -2139 -1034 11
4725 -1581 -1162 6
5392 -1777 -1125 7
6296 -2048 -1085 6
5022 -1684 -1144 6
5794 -1916 -1106 5
6595 -2155 -1021 52
4713 -1615 -1163 2
5332 -1800 -1116 14
6248 -2081 -1080 5
4988 -1713 -1139 6
5747 -1946 -1101 5
6742 -2255 -1047 10
0 0 0 0
5304 -1833 -1114 13
6190 -2110 -1074 5
4941 -1737 -1133 6
5697 -1973 -1095 5
6320 -2163 -985 27
0 0 0 0
5282 -1868 -1113 10
6119 -2134 -1065 31
4901 -1763 -1128 6
5666 -2008 -1092 5
6178 -2163 -966 58
1331 -489 -332 0
5247 -1898 -1110 9
6091 -2172 -1064 5
4878 -1794 -1126 6
5607 -2032 -1084 5
6170 -2208 -968 61
4548 -1708 -1138 6
5215 -1928 -1106 10
6046 -2204 -1059 5
4832 -1817 -1119 6
5579 -2067 -1083 5
6240 -2283 -982 19
4519 -1735 -1135 6
5161 -1950 -1099 7
5995 -2234 -1054 6
4789 -1840 -1113 9
5525 -2091 -1076 5
6498 -2428 -1026 5
4484 -1759 -1130 6
5127 -1980 -1095 6
5933 -2258 -1047 5
4754 -1867 -1109 7
5493 -2124 -1073 5
6446 -2460 -1021 5
4444 -1781 -1124 5
5093 -2008 -1092 6
5898 -2292 -1044 5
4717 -1891 -1104 11
5450 -2152 -1068 5
6398 -2493 -1017 5
4420 -1810 -1122 6
5035 -2028 -1083 5
5852 -2321 -1039 5
4687 -1919 -1100 8
5408 -2180 -1064 5
6334 -2519 -1010 5
4377 -1829 -1115 6
5002 -2056 -1079 5
5810 -2353 -1035 5
4656 -1946 -1097 6
5371 -2209 -1060 5
6287 -2551 -1006 5
4353 -1856 -1112 6
4964 -2082 -1075 6
5766 -2382 -1030 5
4624 -1972 -1093 6
5312 -2229 -1052 5
6227 -2578 -999 4
4318 -1880 -1108 6
4916 -2103 -1068 5
5713 -2407 -1024 5
4592 -1997 -1089 6
5272 -2256 -1047 5
6177 -2608 -994 4
4288 -1903 -1103 6
4885 -2131 -1065 6
5677 -2439 -1021 5
4560 -2023 -1085 6
5244 -2289 -1045 5
6127 -2637 -989 5
4261 -1929 -1101 5
4843 -2154 -1059 6
5627 -2464 -1015 5
4527 -2047 -1081 6
5201 -2314 -1040 5
6083 -2669 -985 5
4243 -1959 -1100 6
4810 -2181 -1055 6
5587 -2494 -1011 5
4493 -2071 -1077 6
5157 -2338 -1034 5
6022 -2692 -978 5
4201 -1976 -1092 17
4782 -2210 -1053 6
5545 -2522 -1007 5
4453 -2092 -1071 6
5117 -2364 -1029 5
5981 -2723 -974 5
4163 -1995 -1086 19
4742 -2233 -1047 6
5496 -2546 -1001 5
4423 -2117 -1067 6
5087 -2394 -1027 5
5920 -2746 -967 5
4138 -2021 -1083 6
4718 -2263 -1045 6
5464 -2578 -998 5
4397 -2144 -1064 6
5054 -2422 -1023 5
5880 -2777 -964 5
4110 -2045 -1080 6
4685 -2288 -1041 6
5424 -2606 -993 5
4368 -2168 -1060 6
5007 -2443 -1016 5
5842 -2809 -960 5
4081 -2067 -1076 6
4647 -2310 -1036 6
5378 -2631 -988 5
4333 -2190 -1055 6
4984 -2475 -1015 5
5794 -2836 -955 5
4048 -2088 -1071 6
4619 -2338 -1033 7
5342 -2659 -984 5
4309 -2217 -1053 6
4941 -2498 -1009 5
5750 -2864 -950 5
4021 -2111 -1067 5
4596 -2367 -1031 8
5304 -2686 -979 5
4275 -2239 -1048 6
4904 -2523 -1004 5
5712 -2894 -946 5
3987 -2130 -1061 5
4564 -2392 -1026 13
5244 -2702 -971 5
4241 -2260 -1043 6
4866 -2547 -999 5
5670 -2922 -941 6
3963 -2154 -1058 5
4522 -2411 -1020 15
5234 -2743 -971 5
4214 -2285 -1039 6
4836 -2574 -996 5
5630 -2951 -936 5
3941 -2180 -1056 5
4468 -2423 -1011 20
5190 -2767 -965 5
4190 -2310 -1036 6
4806 -2602 -992 5
5585 -2976 -931 6
3916 -2203 -1053 5
4455 -2457 -1010 15
5151 -2792 -960 5
4152 -2328 -1030 6
4770 -2625 -987 5
5557 -3011 -928 5
3887 -2224 -1048 4
4423 -2480 -1005 8
5119 -2820 -956 5
4127 -2353 -1027 5
4736 -2650 -982 5
5505 -3032 -921 6
3861 -2246 -1044 4
4393 -2504 -1001 6
5087 -2849 -952 5
4097 -2375 -1022 5
4711 -2679 -979 5
5475 -3064 -918 5
3838 -2270 -1041 4
4361 -2527 -997 6
5059 -2879 -949 5
4093 -2412 -1024 9
0 0 0 0
5445 -3097 -914 5
3807 -2289 -1035 3
4341 -2556 -994 6
5013 -2899 -942 5
4058 -2430 -1017 15
4640 -2725 -968 5
5402 -3121 -908 5
3782 -2310 -1031 3
4306 -2576 -988 6
4985 -2929 -938 5
4026 -2450 -1012 9
4591 -2739 -960 5
5376 -3155 -905 5
3754 -2330 -1026 2
4277 -2599 -984 6
4940 -2948 -931 5
4001 -2473 -1008 5
4579 -2775 -959 5
5342 -3184 -900 6
3755 -2368 -1029 2
4255 -2627 -980 6
4924 -2984 -930 5
3971 -2493 -1003 5
4556 -2804 -956 6
5296 -3205 -893 6
3729 -2389 -1024 3
4229 -2651 -976 6
4892 -3010 -924 5
3957 -2523 -1001 5
4531 -2832 -952 6
5273 -3240 -890 5
3709 -2413 -1021 5
4204 -2676 -972 6
4863 -3038 -920 5
3930 -2544 -996 4
4506 -2859 -948 5
5239 -3268 -885 5
3675 -2428 -1014 1
4178 -2701 -968 6
4836 -3067 -916 5
3905 -2567 -992 4
4468 -2878 -941 5
5199 -3292 -878 5
2251 -1510 -622 0
4147 -2721 -962 6
4801 -3090 -909 5
2268 -1514 -577 1
4449 -2908 -938 5
5174 -3324 -874 5
2219 -1511 -615 0
2261 -1505 -525 7
4774 -3118 -905 5
2244 -1520 -571 3
2258 -1498 -476 7
5152 -3359 -870 5
2174 -1503 -603 1
2218 -1499 -515 6
2244 -1487 -425 7
2193 -1507 -559 3
2214 -1490 -467 6
2239 -1480 -378 9
2146 -1505 -596 0
2199 -1508 -512 12
2206 -1483 -418 22
2173 -1515 -555 2
2181 -1489 -460 7
2198 -1474 -371 25
2139 -1522 -595 0
2148 -1494 -500 6
2185 -1489 -414 11
2128 -1505 -544 6
2147 -1487 -453 6
2171 -1477 -366 11
2123 -1533 -591 0
2140 -1510 -498 14
2140 -1480 -405 8
2124 -1524 -543 6
2135 -1499 -451 17
2135 -1473 -359 26
0 0 0 0
2139 -1530 -498 13
2136 -1498 -404 18
2128 -1549 -545 4
2136 -1522 -451 17
2135 -1494 -359 24
0 0 0 0
2138 -1550 -498 13
2138 -1520 -404 20
2120 -1565 -543 4
2139 -1544 -451 16
2140 -1518 -359 25
0 0 0 0
2138 -1572 -498 12
2137 -1540 -404 18
2138 -1600 -548 3
2143 -1568 -452 15
2137 -1536 -358 25
0 0 0 0
2138 -1594 -498 11
2136 -1560 -403 18
2145 -1627 -549 2
2138 -1586 -451 16
2134 -1555 -357 25
0 0 0 0
2124 -1605 -494 9
2137 -1582 -402 18
3732 -2869 -956 0
2141 -1610 -451 16
2133 -1574 -355 24
0 0 0 0
2136 -1635 -497 0
2143 -1607 -403 13
2138 -1666 -548 2
4216 -3211 -887 5
2140 -1600 -356 5
0 0 0 0
3942 -3058 -916 2
4535 -3445 -851 4
0 0 0 0
4199 -3240 -881 5
4885 -3700 -810 5
0 0 0 0
3921 -3081 -910 2
4516 -3476 -845 4
3702 -2960 -947 0
4186 -3272 -877 4
4876 -3741 -805 5
0 0 0 0
3887 -3094 -901 2
4501 -3507 -840 4
3658 -2962 -935 0
4180 -3308 -874 5
4853 -3769 -798 5
0 0 0 0
3884 -3131 -899 2
4495 -3547 -836 4
0 0 0 0
4163 -3336 -867 4
4853 -3816 -794 5
0 0 0 0
3879 -3165 -896 2
4275 -3415 -792 10
0 0 0 0
4158 -3373 -864 4
4273 -3402 -696 11
0 0 0 0
3870 -3196 -891 0
4283 -3463 -790 18
0 0 0 0
4150 -3407 -859 4
4293 -3459 -696 19
0 0 0 0
3844 -3213 -883 0
4296 -3516 -789 9
0 0 0 0
4137 -3437 -853 5
4210 -3432 -678 12
0 0 0 0
3857 -3262 -883 0
4448 -3682 -813 4
0 0 0 0
4124 -3466 -847 4
4118 -3397 -659 11
0 0 0 0
3839 -3285 -876 0
4440 -3718 -807 4
0 0 0 0
4126 -3508 -844 4
4063 -3390 -646 11
0 0 0 0
3807 -3295 -865 0
4427 -3750 -800 4
0 0 0 0
4116 -3539 -837 4
4014 -3386 -633 10
0 0 0 0
3781 -3309 -855 0
4422 -3787 -794 4
0 0 0 0
4112 -3575 -833 3
3972 -3389 -622 8
0 0 0 0
0 0 0 0
4422 -3829 -789 4
0 0 0 0
0 0 0 0
3980 -3432 -618 4
0 0 0 0
0 0 0 0
4330 -3790 -766 9
0 0 0 0
4061 -3607 -812 0
4322 -3767 -665 3
0 0 0 0
0 0 0 0
3876 -3428 -681 9
0 0 0 0
4019 -3606 -798 0
4716 -4153 -718 2
0 0 0 0
3800 -3469 -841 0
3785 -3381 -659 11
0 0 0 0
4085 -3703 -806 3
4485 -3989 -676 1
0 0 0 0
3699 -3410 -814 3
3743 -3378 -646 11
0 0 0 0
3676 -3365 -719 8
4408 -3960 -658 0
0 0 0 0
3707 -3450 -810 3
3702 -3373 -633 14
0 0 0 0
3666 -3388 -711 10
3713 -3368 -547 11
0 0 0 0
3691 -3468 -800 2
3687 -3390 -624 14
0 0 0 0
3672 -3425 -706 10
3688 -3377 -537 14
0 0 0 0
3819 -3621 -821 0
3686 -3422 -617 13
0 0 0 0
4030 -3793 -768 3
3685 -3405 -529 15
0 0 0 0
3832 -3665 -817 0
3971 -3719 -657 8
0 0 0 0
4102 -3894 -773 1
3682 -3433 -521 9
0 0 0 0
3841 -3705 -812 0
4464 -4216 -730 4
0 0 0 0
4111 -3936 -767 1
3682 -3462 -514 9
0 0 0 0
0 0 0 0
4471 -4258 -721 4
0 0 0 0
4128 -3985 -761 1
3679 -3488 -506 10
0 0 0 0
0 0 0 0
4410 -4234 -702 1
0 0 0 0
4153 -4039 -757 1
3673 -3510 -496 10
0 0 0 0
0 0 0 0
4185 -4048 -657 0
0 0 0 0
4159 -4076 -749 1
3673 -3538 -488 10
0 0 0 0
3883 -3862 -786 0
4173 -4067 -645 0
0 0 0 0
4125 -4071 -732 0
3667 -3557 -478 10
0 0 0 0
3869 -3874 -774 0
4493 -4409 -683 1
0 0 0 0
4109 -4083 -719 3
3669 -3584 -469 10
0 0 0 0
3907 -3937 -772 0
4483 -4429 -670 1
0 0 0 0
4183 -4183 -722 1
3655 -3595 -457 10
0 0 0 0
3939 -3993 -768 0
4382 -4356 -643 1
0 0 0 0
4250 -4275 -721 1
3655 -3618 -448 11
0 0 0 0
3863 -3939 -743 0
4312 -4312 -621 0
0 0 0 0
4260 -4309 -711 1
3652 -3636 -437 11
0 0 0 0
3931 -4029 -744 0
4463 -4489 -631 1
0 0 0 0
4280 -4352 -702 1
3660 -3664 -427 11
0 0 0 0
3982 -4101 -742 0
4671 -4722 -646 5
0 0 0 0
4304 -4398 -693 1
3654 -3678 -416 11
0 0 0 0
4023 -4161 -737 0
4662 -4736 -631 9
0 0 0 0
4301 -4415 -680 1
3653 -3694 -405 11
0 0 0 0
4029 -4185 -726 0
3653 -3726 -483 0
0 0 0 0
4371 -4504 -678 1
3649 -3706 -393 11
0 0 0 0
4086 -4259 -723 1
0 0 0 0
0 0 0 0
4416 -4567 -670 1
3654 -3726 -382 11
0 0 0 0
4118 -4306 -716 0
3652 -3754 -460 8
0 0 0 0
4453 -4620 -661 2
3657 -3743 -370 11
0 0 0 0
4147 -4348 -707 0
3655 -3769 -448 9
0 0 0 0
4499 -4681 -653 2
3666 -3764 -359 11
0 0 0 0
4176 -4388 -697 1
3643 -3767 -434 9
0 0 0 0
4536 -4730 -643 8
3660 -3768 -347 10
0 0 0 0
4216 -4437 -689 1
3638 -3770 -422 9
0 0 0 0
4524 -4726 -626 10
3660 -3777 -334 8
0 0 0 0
4262 -4492 -682 1
3644 -3783 -410 10
0 0 0 0
4516 -4724 -609 10
3659 -3783 -321 8
0 0 0 0
4314 -4551 -675 1
3642 -3786 -397 10
0 0 0 0
4514 -4726 -592 10
3642 -3771 -307 13
0 0 0 0
4370 -4612 -667 1
3638 -3786 -383 10
0 0 0 0
4488 -4702 -573 8
3636 -3769 -294 13
0 0 0 0
4409 -4653 -657 1
3639 -3790 -371 10
3338 -3552 -574 0
4054 -4248 -503 13
3629 -3764 -281 13
0 0 0 0
4462 -4706 -648 2
3651 -3802 -359 11
3342 -3553 -562 0
3648 -3820 -439 9
3613 -3748 -267 12
0 0 0 0
4495 -4737 -636 7
3654 -3804 -346 10
3364 -3571 -552 0
3634 -3803 -424 8
3619 -3753 -254 16
0 0 0 0
4497 -4732 -619 9
3681 -3828 -335 5
3363 -3563 -539 0
3636 -3800 -411 10
3622 -3753 -241 22
0 0 0 0
4503 -4731 -604 9
4538 -4714 -397 6
4301 -4547 -673 0
3638 -3795 -397 10
3603 -3730 -227 20
0 0 0 0
4503 -4720 -587 9
4524 -4693 -379 8
4362 -4599 -666 1
3631 -3781 -384 11
3582 -3703 -213 11
4078 -4324 -710 0
0 0 0 0
3648 -3776 -293 16
4425 -4651 -658 2
3637 -3777 -371 11
3567 -3680 -199 12
4124 -4357 -702 0
3654 -3809 -448 9
3631 -3749 -278 21
4488 -4699 -650 5
3652 -3781 -359 12
3557 -3660 -186 31
4184 -4402 -695 0
3648 -3789 -434 10
3613 -3720 -264 25
4534 -4730 -639 9
3649 -3765 -345 10
3564 -3658 -174 67
4263 -4464 -691 1
3637 -3762 -419 10
3600 -3693 -250 25
4558 -4733 -625 11
3655 -3757 -333 15
3571 -3653 -162 66
4315 -4497 -683 1
3641 -3751 -406 11
3586 -3666 -236 48
4579 -4732 -610 11
3635 -3722 -317 27
3594 -3663 -150 40
4373 -4534 -675 1
3634 -3726 -392 11
3594 -3659 -224 59
4562 -4691 -591 8
3629 -3699 -304 58
4020 -4081 -154 12
4434 -4571 -667 1
3640 -3714 -379 11
3609 -3658 -212 60
3652 -3734 -460 10
3640 -3692 -292 68
4020 -4063 -141 8
4378 -4486 -642 0
3654 -3707 -367 11
3635 -3666 -201 49
3644 -3704 -445 10
3647 -3679 -280 80
3623 -3644 -115 8
4381 -4461 -626 1
3659 -3691 -355 13
3658 -3670 -190 49
3641 -3678 -431 10
3662 -3673 -268 67
3361 -3363 -95 2
4646 -4699 -646 2
3664 -3674 -342 0
3697 -3688 -180 34
3642 -3656 -419 10
3673 -3662 -257 78
3368 -3352 -84 0
4709 -4729 -638 7
4746 -4728 -427 7
3963 -3930 -179 16
3640 -3629 -405 10
3700 -3666 -246 50
3353 -3317 -73 0
3660 -3649 -482 5
3719 -3680 -322 0
4076 -4017 -172 11
3653 -3616 -394 10
3737 -3678 -236 12
3368 -3311 -63 3
3653 -3614 -468 9
3766 -3700 -313 4
4088 -4002 -159 10
3662 -3598 -383 10
3759 -3674 -226 10
3378 -3300 -53 0
3640 -3574 -454 8
3820 -3725 -305 7
4111 -3998 -147 10
3663 -3570 -370 5
3817 -3703 -217 7
3589 -3482 -45 32
3644 -3548 -442 9
3829 -3706 -294 9
4168 -4024 -137 8
4877 -4716 -477 8
3857 -3715 -207 7
3598 -3465 -34 40
3644 -3518 -430 9
3875 -3720 -285 8
4222 -4045 -126 9
4917 -4716 -466 8
3894 -3721 -198 6
3593 -3435 -24 32
3650 -3493 -418 9
3911 -3725 -276 8
4244 -4035 -114 10
4954 -4710 -453 9
3930 -3725 -187 5
3622 -3436 -14 10
3656 -3469 -408 9
3938 -3719 -266 8
4246 -4004 -102 10
4991 -4705 -441 8
3972 -3733 -178 6
3733 -3513 -4 4
3672 -3451 -398 8
3980 -3725 -257 7
3684 -3445 -79 18
4309 -4024 -368 0
4013 -3739 -169 6
3810 -3556 5 3
3718 -3462 -391 0
4031 -3739 -249 7
3606 -3343 -67 38
3720 -3443 -307 2
4062 -3751 -160 7
3803 -3520 14 0
3667 -3382 -375 9
3682 -3384 -217 9
3602 -3310 -57 41
3667 -3361 -292 9
3670 -3358 -134 17
3719 -3411 24 42
3664 -3346 -364 9
3668 -3340 -207 4
3602 -3280 -49 31
3669 -3331 -282 9
3669 -3326 -125 23
3729 -3390 33 53
3680 -3327 -355 9
3674 -3313 -197 11
3647 -3290 -40 18
3672 -3301 -272 8
3671 -3296 -116 11
3750 -3377 41 28
3718 -3327 -349 7
3700 -3304 -189 9
3749 -3350 -32 15
4085 -3635 -292 3
3687 -3278 -107 8
3910 -3488 53 7
4498 -3983 -410 0
4306 -3807 -210 16
3783 -3347 -24 25
4265 -3756 -295 9
3743 -3295 -100 9
4330 -3825 68 0
4641 -4067 -411 0
4359 -3814 -202 20
3799 -3328 -15 39
4282 -3731 -285 32
3764 -3280 -92 13
4345 -3801 77 18
4659 -4039 -401 0
4379 -3791 -192 10
3889 -3373 -7 12
4271 -3682 -274 37
3803 -3279 -85 24
4535 -3926 90 25
5529 -4741 -462 11
4492 -3848 -188 12
4096 -3515 0 5
4273 -3644 -265 28
3847 -3283 -78 33
4626 -3964 101 54
5588 -4739 -454 8
4586 -3886 -181 32
4206 -3571 8 8
4441 -3746 -265 3
3889 -3283 -71 36
4493 -3809 106 39
5617 -4710 -444 7
4489 -3763 -168 3
4185 -3515 16 89
5632 -4698 -324 6
3932 -3283 -63 38
4173 -3500 106 79
5697 -4722 -437 7
4486 -3719 -159 0
4196 -3487 24 48
5699 -4700 -316 7
3981 -3287 -57 42
4188 -3475 114 78
5758 -4719 -430 7
5713 -4682 -191 8
4733 -3889 36 11
5773 -4707 -309 7
4026 -3287 -50 35
4283 -3515 124 4
5824 -4717 -423 7
5777 -4680 -183 8
4834 -3928 45 0
5831 -4699 -301 8
4075 -3289 -43 25
5268 -4274 161 4
4266 -3414 -301 10
4235 -3392 -126 4
5778 -4642 63 18
4279 -3408 -212 11
4132 -3297 -37 19
5712 -4581 183 32
4280 -3385 -294 10
4274 -3382 -120 16
5846 -4642 73 17
4283 -3370 -205 0
4193 -3307 -31 10
5785 -4587 194 29
4263 -3331 -285 8
4254 -3327 -112 11
5909 -4637 83 15
4268 -3319 -197 8
4266 -3324 -25 5
5853 -4586 205 19
6221 -4802 -405 12
4266 -3297 -106 4
1991 -1544 30 0
6233 -4788 -278 14
4326 -3330 -18 0
5914 -4579 215 10
6226 -4746 -395 12
4319 -3297 -100 3
1990 -1525 33 0
5430 -4119 -233 1
6210 -4723 -18 13
6077 -4649 228 18
6135 -4619 -379 20
6213 -4684 -136 13
2021 -1529 36 1
5388 -4037 -223 1
6219 -4672 -9 13
6310 -4768 245 20
5251 -3904 -316 0
6141 -4573 -125 29
2028 -1516 39 0
5445 -4029 -218 1
6201 -4601 -1 14
6474 -4832 259 7
5208 -3823 -306 0
6207 -4564 -118 14
2064 -1524 42 0
2104 -1537 -81 0
6215 -4554 5 14
6401 -4718 263 11
2136 -1548 -122 19
2132 -1547 -38 8
2103 -1533 45 0
2139 -1543 -79 17
2132 -1542 4 3
6495 -4728 273 19
2131 -1524 -119 22
2124 -1522 -35 17
2129 -1532 48 2
2135 -1520 -76 20
2122 -1515 6 17
6551 -4708 282 12
2129 -1503 -116 22
2125 -1503 -32 17
2124 -1509 50 18
2128 -1495 -73 19
2126 -1499 9 18
2134 -1514 93 19
2126 -1481 -113 21
2123 -1482 -30 18
2128 -1492 52 17
2135 -1481 -71 21
2124 -1477 11 18
2131 -1492 95 20
2122 -1459 -110 20
2130 -1468 -28 20
2128 -1473 54 20
2126 -1455 -69 19
2126 -1460 13 18
2131 -1473 97 20
2127 -1443 -108 21
2125 -1445 -26 17
2129 -1454 56 19
2130 -1438 -66 21
2124 -1439 15 19
2130 -1453 98 20
2134 -1428 -106 7
2129 -1428 -24 21
2130 -1435 58 18
2140 -1425 -65 7
2132 -1425 17 20
2134 -1435 100 19
2168 -1431 -105 9
2140 -1416 -22 7
2131 -1417 59 21
2174 -1428 -64 8
2138 -1409 18 6
2128 -1412 101 20
2199 -1432 -105 9
2172 -1417 -20 7
2141 -1404 61 6
2204 -1428 -62 8
2170 -1411 20 6
2136 -1398 103 7
2239 -1437 -105 8
2202 -1417 -19 7
2173 -1405 64 7
2237 -1429 -62 7
2206 -1415 22 4
2178 -1406 106 8
6202 -3926 -285 5
2226 -1413 -17 5
2205 -1407 66 7
5710 -3598 -153 0
2231 -1411 24 3
2209 -1406 109 8
6219 -3882 -280 15
5545 -3471 -40 3
2244 -1411 68 6
6213 -3859 -162 15
2223 -1386 25 0
2228 -1399 111 7
6215 -3824 -275 15
6208 -3831 -41 13
5760 -3572 179 51
6218 -3808 -157 15
5588 -3435 68 28
7804 -4829 394 0
6216 -3770 -270 15
6218 -3783 -37 15
5706 -3488 181 43
6217 -3753 -153 14
6186 -3748 79 20
7916 -4828 402 0
6216 -3716 -266 14
6214 -3726 -33 15
6502 -3917 209 11
6215 -3696 -149 14
6223 -3717 82 14
8000 -4809 410 0
6214 -3660 -261 14
6216 -3672 -30 15
6496 -3857 212 66
6218 -3645 -145 15
6297 -3706 87 13
8145 -4825 420 0
6210 -3604 -257 14
6217 -3620 -26 15
8508 -4978 280 38
6224 -3595 -142 14
6297 -3651 89 5
8240 -4809 428 0
6214 -3553 -253 14
6224 -3570 -23 50
8518 -4909 284 66
6222 -3540 -138 14
6253 -3572 91 4
8340 -4796 435 0
6277 -3535 -253 7
6182 -3493 -20 32
8612 -4890 290 22
6278 -3519 -136 6
6516 -3666 98 75
8437 -4778 442 0
6378 -3538 -253 6
6179 -3439 -18 50
8744 -4890 296 23
6374 -3518 -136 6
6517 -3611 100 12
9161 -5110 482 7
6483 -3541 -254 6
6195 -3395 -15 29
8874 -4887 303 23
6478 -3521 -135 6
8899 -4856 139 53
9538 -5239 503 11
6578 -3538 -255 6
6290 -3394 -13 28
9557 -5182 329 62
6585 -3523 -135 6
8524 -4579 136 44
9701 -5246 514 10
6685 -3540 -255 5
6383 -3391 -12 27
9665 -5160 334 67
6684 -3521 -134 6
8489 -4490 137 23
9854 -5246 523 10
8581 -4473 -325 10
6491 -3394 -10 29
9770 -5133 340 66
9313 -4828 -184 0
8500 -4425 139 67
10015 -5248 532 10
8575 -4399 -321 11
6601 -3397 -8 27
10015 -5179 350 29
9516 -4856 -185 1
8526 -4367 141 33
10137 -5227 540 10
8572 -4327 -318 11
6713 -3399 -7 24
8624 -4388 302 1
9425 -4732 -180 1
8550 -4310 143 20
8600 -4363 458 2
8564 -4253 -315 14
9825 -4895 -8 0
8685 -4348 305 1
9533 -4708 -180 1
8581 -4255 145 6
8669 -4326 462 7
8566 -4185 -312 13
10934 -5359 -7 6
8694 -4282 306 3
9646 -4686 -180 1
8707 -4247 148 1
8665 -4253 462 3
8577 -4120 -310 12
10938 -5272 -5 3
8685 -4207 306 0
10962 -5238 -202 4
8524 -4089 146 0
8652 -4176 461 0
8581 -4054 -308 14
10931 -5181 -3 15
8674 -4130 306 1
9941 -4669 -181 15
9909 -4673 170 11
8672 -4116 462 2
8689 -4037 -310 10
9950 -4637 -2 13
8665 -4057 306 3
9051 -4180 -163 8
8619 -3996 149 2
8678 -4048 462 6
7739 -3533 -274 2
8991 -4118 -1 5
8588 -3952 303 3
7677 -3485 -137 0
8895 -4053 154 5
8666 -3973 460 6
7748 -3476 -273 2
8463 -3809 0 4
8596 -3887 303 8
7732 -3448 -137 1
9764 -4372 169 28
8683 -3912 461 7
7823 -3450 -275 0
7738 -3422 0 1
8655 -3845 305 7
7719 -3382 -136 0
9335 -4106 162 37
8669 -3836 459 5
7997 -3463 -280 0
7787 -3384 0 0
8660 -3780 305 11
7931 -3414 -139 0
7777 -3360 135 2
8763 -3809 463 4
9026 -3839 -314 17
7928 -3383 0 0
8669 -3715 304 22
0 0 0 0
7935 -3367 137 0
9239 -3944 487 16
9140 -3818 -317 13
8050 -3373 0 0
8694 -3659 304 110
9314 -3865 -162 15
0 0 0 0
9058 -3795 476 23
9300 -3813 -322 1
8516 -3503 0 44
9395 -3881 328 72
9493 -3868 -165 12
9418 -3851 162 53
11778 -4844 617 62
8588 -3456 -297 16
8523 -3440 0 31
9413 -3815 328 57
8594 -3436 -149 15
9427 -3783 162 43
11553 -4663 603 41
11111 -4388 -383 38
8592 -3403 0 33
11772 -4682 409 55
11694 -4586 -203 11
9759 -3841 167 1
11784 -4664 613 62
10725 -4154 -369 5
8814 -3425 0 8
11477 -4478 397 55
11780 -4532 -205 19
10616 -4098 180 19
11785 -4575 611 62
9208 -3498 -317 16
8943 -3406 0 5
11654 -4458 401 56
9206 -3472 -160 8
11321 -4286 191 71
11789 -4488 609 61
10996 -4096 -378 29
9109 -3402 0 5
11789 -4421 404 54
11791 -4359 -205 35
11413 -4234 191 81
11787 -4398 607 64
10769 -3931 -370 16
9259 -3389 -1 3
11793 -4334 402 55
11347 -4112 -198 8
11521 -4189 192 30
11796 -4312 604 60
10773 -3853 -370 15
11130 -3991 -2 7
11789 -4244 400 55
10507 -3732 -184 4
11797 -4208 195 53
11793 -4230 602 59
11791 -4140 -405 40
11678 -4115 -3 16
11802 -4179 399 53
11802 -4123 -207 38
11799 -4139 194 51
11796 -4163 600 59
11395 -3937 -392 17
11738 -4070 -4 31
11802 -4110 397 52
11401 -3919 -200 16
11794 -4069 193 47
11803 -4098 598 59
11261 -3828 -387 2
11617 -3962 -5 60
11789 -4039 395 55
11462 -3875 -202 5
11775 -3996 191 72
11798 -4029 596 61
11389 -3808 -392 11
11374 -3815 -6 60
11798 -3976 393 64
11626 -3866 -205 10
11755 -3924 189 60
11803 -3963 594 59
11410 -3751 -393 13
11241 -3708 -7 62
11796 -3909 392 61
11469 -3750 -204 11
11711 -3843 187 21
11804 -3897 592 61
11389 -3681 -393 8
11171 -3622 -8 62
11792 -3841 390 60
11528 -3705 -205 12
11718 -3780 186 21
11804 -3831 589 60
11384 -3617 -393 12
11112 -3541 -9 64
11796 -3777 388 60
11427 -3609 -204 15
11721 -3716 184 21
11811 -3766 588 62
11362 -3547 -393 14
11063 -3465 -10 55
11798 -3711 386 60
11397 -3537 -205 18
11508 -3585 179 20
11808 -3699 585 61
11367 -3486 -394 20
11058 -3402 -11 43
11806 -3648 384 60
11378 -3469 -205 26
11448 -3503 177 16
11806 -3633 583 60
11371 -3425 -394 25
11054 -3340 -12 37
11809 -3583 382 62
11378 -3406 -206 30
11717 -3520 179 26
11816 -3570 581 61
11493 -3400 -399 5
11062 -3282 -14 28
11782 -3510 380 57
11560 -3397 -210 7
11797 -3480 179 27
11814 -3504 579 64
11681 -3392 -406 21
11069 -3223 -15 15
11811 -3453 379 57
11679 -3369 -214 29
11801 -3416 177 86
11806 -3436 576 68
11756 -3349 -409 16
11390 -3255 -16 73
11801 -3386 376 65
11813 -3344 -217 65
11796 -3350 175 94
11801 -3370 573 66
11774 -3291 -411 20
11346 -3181 -18 18
11803 -3322 375 112
11824 -3283 -218 67
11816 -3292 174 71
11783 -3300 570 112
5972 -1637 -209 102
11304 -3108 -19 44
11785 -3253 372 111
5965 -1624 -110 121
11558 -3157 169 34
11796 -3239 568 112
5968 -1604 -209 103
5971 -1610 -10 128
11797 -3192 370 95
5969 -1593 -111 131
5968 -1598 86 128
11787 -3173 565 116
5971 -1573 -209 107
5972 -1577 -11 130
5972 -1583 186 130
5965 -1560 -111 119
5966 -1565 85 127
5966 -1573 285 118
5982 -1544 -210 51
5972 -1545 -12 124
5966 -1549 185 119
5969 -1529 -112 130
5970 -1534 84 130
5963 -1540 284 109
7802 -1972 -275 25
5973 -1514 -13 100
5972 -1519 184 118
6109 -1532 -115 0
5978 -1504 84 135
5971 -1510 283 114
7764 -1922 -274 40
6120 -1518 -14 0
5982 -1489 183 119
8860 -2176 -169 3
6073 -1496 84 0
5990 -1482 282 111
7756 -1879 -275 60
11561 -2808 -28 26
6072 -1479 185 0
8902 -2139 -170 9
11580 -2790 159 41
6043 -1463 284 0
7763 -1839 -276 69
11589 -2753 -29 3
11575 -2758 351 107
8750 -2056 -168 25
11558 -2724 157 4
11685 -2767 547 91
7755 -1797 -276 86
11652 -2707 -31 5
11582 -2698 350 113
8736 -2007 -169 24
11682 -2691 157 7
11806 -2732 550 117
7752 -1756 -276 98
9871 -2241 -28 33
11674 -2658 350 27
8732 -1960 -170 26
11726 -2639 156 28
11809 -2670 548 117
7744 -1713 -277 103
9971 -2211 -29 31
11666 -2595 348 26
8736 -1915 -171 27
11755 -2584 154 19
11695 -2583 540 45
7753 -1674 -278 98
9978 -2160 -30 58
11710 -2543 347 25
8731 -1869 -172 21
11753 -2522 153 42
11676 -2516 538 86
7752 -1634 -278 91
9979 -2108 -32 98
11713 -2481 346 30
8755 -1828 -173 33
11733 -2456 151 23
11676 -2455 535 89
7766 -1597 -280 78
9903 -2040 -33 50
11742 -2426 345 49
8891 -1810 -177 33
11790 -2406 150 15
11684 -2395 534 106
7778 -1559 -281 78
9890 -1986 -34 57
11661 -2348 340 59
9335 -1852 -186 44
11769 -2341 148 44
11823 -2361 538 150
7796 -1522 -282 67
9866 -1930 -35 57
11683 -2291 339 125
10014 -1936 -201 57
11753 -2276 146 41
11810 -2296 535 137
7829 -1489 -284 58
9850 -1876 -36 62
11675 -2229 337 123
10039 -1889 -203 67
11668 -2199 143 17
11813 -2235 533 137
7871 -1456 -286 35
9852 -1825 -37 68
11678 -2168 335 118
9904 -1812 -201 51
11809 -2165 143 150
11806 -2172 531 150
7958 -1431 -290 34
9879 -1780 -38 78
11675 -2107 333 113
9800 -1743 -200 8
11640 -2073 139 41
11817 -2112 529 143
7983 -1395 -292 26
9779 -1711 -39 76
11814 -2071 336 150
8563 -1479 -175 75
9823 -1699 116 13
11827 -2053 528 150
7981 -1353 -292 1
9768 -1659 -40 150
9764 -1662 276 19
8580 -1438 -177 44
9767 -1639 114 150
9756 -1642 434 0
8210 -1351 -301 2
9774 -1610 -41 150
9767 -1611 274 150
9955 -1617 -206 66
9762 -1588 113 150
9776 -1595 433 150
8290 -1322 -305 6
10022 -1599 -44 97
9769 -1561 273 150
9955 -1567 -207 66
11819 -1862 136 150
9774 -1545 431 150
8302 -1281 -306 5
10110 -1562 -45 92
11813 -1828 329 150
9966 -1517 -208 60
11808 -1800 134 150
9964 -1524 438 0
8331 -1244 -308 8
0 0 0 0
11817 -1767 327 150
9952 -1465 -209 43
11807 -1740 133 150
11816 -1745 518 150
8162 -1177 -302 5
0 0 0 0
11826 -1708 326 150
9971 -1418 -210 41
11760 -1672 131 127
11816 -1685 516 150
8162 -1136 -303 5
0 0 0 0
11817 -1646 324 150
9961 -1365 -211 42
11817 -1620 130 150
11815 -1624 514 150
8692 -1166 -323 12
0 0 0 0
11817 -1585 322 150
9959 -1315 -212 47
11817 -1561 129 150
11818 -1563 513 150
8773 -1133 -327 5
11767 -1519 -59 150
11818 -1526 321 150
9963 -1266 -213 41
11813 -1499 127 150
11819 -1503 511 150
8872 -1101 -331 2
11806 -1464 -60 150
11814 -1465 319 150
9960 -1214 -213 48
11819 -1441 126 150
11824 -1444 510 150
9930 -1182 -371 19
11816 -1406 -61 150
11815 -1405 318 150
9970 -1166 -214 48
11815 -1381 125 150
11820 -1382 508 150
7947 -907 -298 11
11821 -1348 -63 150
11818 -1345 317 150
9976 -1117 -215 48
11815 -1320 123 151
11821 -1323 507 150
8132 -887 -305 51
11828 -1288 -64 150
11823 -1286 316 150
9980 -1067 -216 53
11815 -1261 122 150
11813 -1262 505 150
8676 -903 -326 88
11829 -1229 -65 150
11824 -1226 314 150
9982 -1017 -217 60
11831 -1204 121 151
11821 -1203 504 151
8686 -861 -327 80
11834 -1171 -66 151
11814 -1166 313 151
9974 -967 -218 67
11834 -1144 120 151
11825 -1143 503 151
8655 -815 -327 77
11836 -1111 -67 151
11819 -1107 312 151
9960 -915 -218 91
11825 -1084 119 151
11827 -1084 502 151
8643 -770 -327 56
11830 -1052 -68 151
11818 -1047 311 151
11737 -1020 -258 39
11829 -1025 118 151
11829 -1024 500 151
8766 -738 -332 2
11827 -993 -68 151
11822 -988 310 151
11814 -968 -260 151
11824 -965 117 151
11832 -964 499 151
8951 -709 -339 1
11829 -933 -69 151
11821 -928 309 151
11816 -909 -261 144
11821 -905 116 151
11821 -904 498 151
11860 -880 -451 85
11822 -874 -70 151
11823 -869 308 151
11828 -851 -262 151
11820 -847 115 151
11824 -844 497 151
11852 -821 -451 109
11829 -816 -71 151
11824 -810 307 151
11831 -793 -263 151
11821 -787 115 151
11828 -785 496 151
11849 -762 -451 109
11833 -757 -72 151
11826 -751 306 151
11827 -735 -263 151
11828 -729 114 152
11828 -725 495 151
11851 -704 -452 116
11830 -698 -72 151
11822 -692 305 151
11827 -676 -264 151
11831 -670 113 152
11829 -666 494 151
11850 -645 -453 133
11833 -639 -73 152
11827 -632 304 152
11824 -617 -264 151
11832 -612 112 152
11826 -606 493 151
11860 -587 -453 150
11831 -580 -74 152
11824 -573 304 152
11826 -559 -265 151
11834 -553 112 152
11824 -547 492 151
11840 -527 -453 150
11826 -521 -74 152
11834 -515 303 152
11834 -500 -266 151
11838 -494 111 152
11831 -488 492 152
11715 -464 -449 94
11833 -463 -75 150
11842 -455 303 152
11862 -443 -267 97
11825 -435 110 151
11823 -428 491 151
11867 -412 -455 127
11864 -405 -75 138
11837 -396 302 108
11868 -385 -267 111
11851 -376 110 121
11848 -370 491 122
11829 -352 -454 94
11857 -347 -76 128
11861 -338 302 120
11860 -325 -268 117
11856 -317 110 125
11854 -311 491 150
11837 -294 -455 59
11859 -288 -76 124
11856 -278 301 109
11854 -267 -268 109
11853 -259 109 150
11851 -251 490 142
11859 -236 -456 114
11843 -228 -77 132
11858 -220 301 110
11866 -209 -269 121
11830 -199 109 148
11851 -192 490 147
11859 -178 -456 108
11863 -171 -77 116
11867 -161 301 117
11869 -150 -269 118
11853 -141 108 129
11856 -133 490 150
11862 -120 -457 107
11865 -112 -77 116
11863 -101 300 118
11864 -92 -269 104
11860 -82 108 137
11858 -73 490 143
11861 -61 -457 107
11865 -53 -78 134
11850 -42 300 123
11864 -33 -269 104
11873 -23 108 137
11859 -14 489 122
11866 -3 -457 101
11872 5 -78 124
11851 16 300 114
11876 25 -270 105
11875 34 108 129
11868 44 490 112
11874 54 -458 78
11882 63 -78 115
11848 75 299 105
11867 83 -270 103
11862 93 108 115
11864 104 489 109
11861 113 -457 41
11869 122 -78 111
11859 134 300 104
11865 141 -270 108
11850 152 107 116
11859 162 489 108
11855 171 -457 41
11870 181 -78 111
11863 193 300 104
11849 200 -270 151
11863 211 107 130
11859 222 489 102
11847 229 -457 44
11858 239 -78 150
11862 252 299 116
11849 258 -270 135
11847 269 107 130
11866 282 489 122
11866 287 -458 59
11875 298 -79 150
11843 310 299 100
11860 317 -270 126
11862 329 107 150
11853 340 489 70
11864 346 -458 84
11869 357 -79 150
11856 369 299 129
11861 376 -270 122
11850 387 107 150
11858 400 489 104
11857 404 -458 89
11859 415 -79 150
11859 429 300 130
11863 434 -270 109
11853 446 107 150
11857 459 489 98
11866 463 -458 83
11861 474 -78 150
11857 488 300 110
11863 492 -270 102
11862 506 108 150
11853 518 489 86
11867 521 -458 82
11860 532 -78 120
11857 547 300 105
11861 551 -270 101
11865 564 108 139
11859 578 490 84
11873 580 -458 80
11857 591 -78 108
11860 606 300 100
11863 609 -270 88
11855 622 108 111
11867 638 490 87
11880 639 -458 80
11859 650 -78 91
11858 665 301 89
11870 668 -270 84
11867 683 108 97
11869 697 491 80
11872 697 -458 83
11852 708 -78 87
11863 724 301 77
11863 726 -270 88
11857 741 109 89
11870 756 491 67
11877 756 -458 78
11864 767 -78 95
11859 783 301 81
11876 786 -270 83
11866 800 109 91
11871 817 492 70
11876 814 -458 77
11868 826 -77 82
11870 844 302 77
11884 845 -270 21
11865 859 109 88
11874 876 493 77
11883 873 -458 78
11889 887 -77 0
11877 903 303 69
11856 902 -269 1
11890 920 110 0
11899 937 494 53
11894 933 -458 71
11910 948 -77 0
11907 965 304 0
11874 962 -269 0
11884 979 110 0
11894 997 495 59
11884 991 -458 65
11909 1006 -76 0
11900 1024 304 0
11882 1021 -269 14
11876 1037 111 0
11883 1056 495 61
11895 1055 -457 67
11878 1069 -75 22
11902 1089 306 0
11891 1086 -267 59
11886 1103 113 40
11879 1120 497 65
11887 1114 -456 89
11884 1128 -74 67
11873 1146 306 69
11891 1146 -267 150
11883 1162 113 72
11889 1181 498 70
11890 1173 -456 74
11868 1186 -73 152
11872 1206 307 65
11875 1203 -266 86
11874 1220 114 141
11885 1241 499 65
7435 770 -285 0
11894 1248 -73 60
11883 1267 308 108
11889 1263 -266 61
11880 1281 115 64
11891 1301 500 65
7450 809 -285 0
11892 1307 -72 64
11888 1326 309 60
11898 1324 -266 28
11888 1341 115 61
11894 1361 501 52
7430 844 -284 0
11866 1363 -72 20
11893 1387 310 57
11916 1385 -266 0
11887 1400 116 5
11900 1423 502 48
11899 1410 -455 58
11883 1425 -71 1
11897 1448 311 0
11863 1438 -264 1
11862 1457 117 1
11905 1483 504 44
6511 804 -248 0
11858 1481 -70 1
11950 1514 313 0
11894 1501 -264 17
11885 1520 118 0
11903 1543 505 42
6547 841 -249 113
11874 1542 -70 7
11883 1566 312 0
11899 1561 -264 60
11873 1577 118 6
11906 1604 506 29
6524 870 -248 69
11893 1604 -69 64
11894 1628 314 61
11898 1620 -263 67
11897 1641 119 58
11904 1664 507 25
6529 903 -248 63
11893 1665 -68 66
11892 1687 315 59
11897 1680 -263 61
11900 1701 120 61
11880 1721 507 20
6532 937 -248 59
11885 1723 -68 65
11893 1748 316 66
11898 1740 -262 60
11899 1761 121 63
11894 1784 509 16
6539 971 -248 54
11900 1785 -67 64
11900 1809 317 63
11903 1800 -261 52
11902 1822 122 64
11918 1848 511 26
6529 1002 -248 43
11896 1845 -66 60
11900 1869 318 60
9287 1452 -203 1
11900 1882 123 61
11914 1908 512 45
6521 1033 -247 31
11900 1905 -65 63
11898 1929 319 59
9326 1505 -204 0
11894 1941 124 59
11858 1960 511 49
6534 1068 -247 21
11905 1966 -65 58
11900 1991 321 55
9283 1544 -202 0
11902 2003 125 57
11913 2030 515 65
6504 1096 -246 10
11895 2025 -64 54
11903 2052 322 53
9328 1599 -203 0
11906 2064 126 45
11907 2090 516 67
6518 1131 -246 4
9613 1685 -51 3
11912 2114 323 46
9124 1611 -198 17
9591 1711 102 3
11926 2155 518 69
6526 1166 -246 0
9542 1721 -50 3
11910 2175 324 47
9116 1655 -197 5
9553 1754 103 3
11925 2216 520 66
8986 1651 -339 5
9488 1759 -49 3
11883 2231 325 7
9229 1722 -199 4
9476 1788 103 2
11920 2276 521 69
8998 1699 -339 4
9432 1797 -48 3
11915 2298 327 69
9175 1759 -197 40
9421 1825 103 2
11925 2339 522 71
9003 1746 -339 2
9362 1831 -47 2
11915 2359 328 84
9178 1806 -197 25
9363 1862 103 2
11937 2404 525 61
8996 1790 -338 2
9319 1871 -46 4
11734 2384 325 11
9289 1875 -199 0
9289 1896 103 1
11695 2415 515 11
9004 1837 -338 2
9229 1900 -45 2
11457 2387 318 11
11101 2299 -238 11
9206 1926 103 0
11412 2416 504 12
8999 1883 -338 2
11062 2334 -53 11
11198 2391 312 10
10867 2306 -232 12
11004 2358 124 11
11164 2422 495 11
9004 1929 -338 5
10807 2336 -51 10
10947 2394 306 10
10637 2311 -226 11
10781 2367 122 11
10926 2427 486 11
9002 1975 -337 2
10585 2343 -49 12
10713 2398 301 11
10416 2317 -221 11
10550 2371 121 12
10680 2427 476 11
9259 2079 -347 3
10355 2345 -48 11
10483 2402 295 10
10213 2325 -216 12
10339 2377 119 11
10452 2431 467 11
10004 2298 -374 7
10147 2351 -46 11
10264 2405 290 11
10010 2330 -212 12
10121 2379 117 12
10246 2436 459 12
9833 2310 -368 12
9958 2359 -45 12
10055 2408 286 11
9820 2337 -207 12
9921 2384 116 12
10027 2437 451 11
9639 2314 -360 12
9753 2361 -43 12
9856 2413 281 11
9631 2342 -203 12
9728 2388 115 12
9826 2440 443 11
9447 2317 -353 12
9562 2365 -42 12
9657 2415 276 11
9456 2348 -199 12
9540 2392 113 12
9660 2450 437 13
9264 2319 -346 13
9379 2368 -40 12
9473 2418 272 11
9281 2353 -195 12
9355 2395 112 12
9465 2450 429 13
9093 2324 -339 12
9200 2371 -39 13
9303 2424 268 12
9090 2352 -190 13
9192 2401 110 12
9263 2447 421 12
8953 2335 -334 13
9033 2375 -38 12
9123 2425 264 12
8917 2354 -186 12
9009 2401 109 13
9096 2451 415 13
8781 2336 -327 13
8864 2378 -37 13
8952 2427 260 13
8752 2357 -183 12
8849 2405 108 12
8939 2457 408 12
8631 2341 -322 13
8715 2384 -36 13
8786 2429 255 12
8605 2362 -179 13
8682 2406 106 13
8764 2455 401 13
8468 2342 -316 14
8554 2385 -34 13
8641 2435 252 13
8444 2362 -176 17
8535 2410 105 14
8565 2446 393 20
8320 2344 -310 13
8387 2383 -34 23
8480 2435 248 14
8279 2360 -173 26
8372 2409 103 28
8417 2448 388 26
8181 2349 -305 13
8243 2386 -33 23
8294 2425 243 19
8159 2369 -170 28
8249 2417 102 32
8260 2447 381 31
8053 2355 -300 14
8121 2393 -32 27
8174 2434 240 24
8037 2376 -167 27
8110 2420 101 26
8141 2456 377 31
7914 2356 -295 14
7965 2390 -31 18
8052 2441 238 29
7862 2367 -164 24
7943 2413 99 15
8009 2459 371 26
7788 2360 -291 15
7818 2388 -30 23
7887 2434 233 17
7738 2370 -161 28
7789 2408 98 24
7867 2458 365 28
7665 2364 -286 17
7685 2388 -30 28
7740 2430 229 23
7618 2374 -158 31
7652 2407 96 29
7729 2457 360 35
7546 2367 -282 21
7570 2393 -29 37
7635 2439 227 19
7554 2395 -157 15
7171 2294 90 1
7175 2320 335 0
7439 2373 -279 13
7119 2289 -27 3
7071 2297 211 0
7036 2269 -147 0
7106 2312 90 0
7034 2313 329 0
5931 1924 -222 0
5949 1944 -23 47
5944 1963 177 0
5919 1940 -123 0
5925 1959 75 6
5949 1988 278 24
11904 3926 -447 0
11954 3973 -46 0
5890 1977 176 0
11907 3968 -249 0
11958 4020 152 0
11963 4065 561 0
11930 3999 -449 0
11952 4037 -46 0
11921 4067 357 0
11995 4062 -252 0
11951 4083 153 0
11990 4140 563 0
11977 4080 -452 0
11947 4100 -46 0
11922 4133 358 0
11888 4091 -250 0
11918 4137 152 0
11924 4183 561 0
11910 4122 -450 0
11910 4153 -47 0
11956 4211 359 0
5554 1941 -117 0
11923 4204 152 0
11920 4247 562 0
11949 4201 -453 0
11947 4231 -47 0
11925 4266 359 0
5428 1927 -115 0
11924 4270 152 0
11996 4340 566 0
5388 1923 -204 0
11961 4302 -47 0
11929 4333 359 0
5364 1934 -113 0
11901 4327 152 0
11951 4391 564 0
5275 1912 -201 0
11907 4348 -48 0
11941 4404 360 0
5331 1951 -113 0
11930 4404 152 0
0 0 0 0
5242 1930 -200 0
5245 1947 -21 0
11949 4483 360 0
5219 1944 -111 0
11905 4477 151 0
11931 4536 565 0
5160 1937 -198 0
5162 1953 -21 0
12018 4596 362 0
5107 1940 -109 0
11899 4561 150 0
5148 1995 243 0
5067 1938 -195 0
5062 1952 -21 0
11926 4647 359 0
4983 1928 -108 0
11966 4673 151 0
10401 4107 493 0
4929 1921 -190 0
11932 4687 -52 0
11927 4735 358 0
11908 4694 -260 0
11907 4737 149 0
0 0 0 0
11954 4746 -465 0
11937 4776 -53 0
11968 4838 359 0
4821 1936 -106 0
11912 4826 148 0
0 0 0 0
12011 4856 -471 0
4829 1967 -22 0
11891 4894 356 0
4726 1931 -104 0
0 0 0 0
4819 2009 228 0
4709 1938 -185 0
11910 4939 -57 0
11950 5007 357 0
4666 1941 -104 0
11948 5016 145 0
4685 1988 221 0
12021 5036 -477 0
11932 5036 -59 0
4627 1973 138 0
0 0 0 0
0 0 0 0
4603 1987 217 0
11935 5088 -477 0
11880 5102 -62 0
4566 1980 135 0
4473 1927 -102 0
0 0 0 0
4551 1999 214 0
4438 1924 -178 0
0 0 0 0
4527 1997 133 0
11926 5226 -276 0
0 0 0 0
4473 1998 210 0
0 0 0 0
0 0 0 0
4414 1980 129 0
0 0 0 0
0 0 0 0
4401 1999 206 0
0 0 0 0
0 0 0 0
4340 1979 126 0
0 0 0 0
4313 1971 48 0
4313 1991 201 0
0 0 0 0
0 0 0 0
4285 1987 124 0
4235 1950 -102 1
4255 1976 46 0
4230 1985 197 0
4213 1952 -175 0
4212 1965 -27 0
4222 1989 121 1
5172 2420 -127 3
4225 1994 45 1
4240 2022 196 1
5167 2433 -218 25
5188 2460 -36 26
5198 2489 148 28
5137 2442 -128 25
5165 2476 53 30
4306 2086 199 0
5076 2428 -216 26
5100 2457 -37 27
5125 2492 144 30
5061 2445 -128 27
5081 2474 50 32
5089 2504 234 30
4996 2427 -215 28
5030 2461 -38 29
5046 2492 141 33
4994 2450 -129 29
5009 2477 48 34
5020 2508 229 34
4926 2431 -215 29
4951 2460 -40 32
4973 2494 137 33
4913 2447 -129 29
4934 2478 45 37
4937 2504 224 33
4857 2434 -214 31
4882 2463 -42 32
4896 2493 133 33
4838 2447 -129 31
4862 2479 43 37
4864 2504 219 34
4786 2435 -214 32
4817 2467 -43 33
4822 2492 129 33
4770 2449 -130 30
4802 2484 40 36
4796 2506 214 34
4716 2436 -214 32
4745 2466 -45 34
4762 2497 125 35
4709 2453 -131 31
4728 2483 37 38
4734 2510 209 35
4657 2441 -214 34
4679 2468 -47 34
4690 2496 121 36
4644 2456 -132 33
4661 2483 34 38
4658 2506 204 35
4588 2439 -214 35
4614 2469 -49 36
4626 2497 118 36
4579 2456 -133 35
4593 2482 31 39
4599 2510 199 37
4527 2442 -215 36
4549 2469 -51 36
4562 2498 113 38
4519 2459 -135 35
4528 2482 28 39
4533 2509 194 37
4433 2425 -213 2
4492 2472 -54 13
4500 2499 109 36
4425 2442 -135 1
4442 2469 24 2
4454 2499 189 2
4429 2458 -216 3
4429 2472 -56 3
4419 2488 105 6
4425 2476 -138 3
4421 2491 21 4
4421 2515 185 3
4433 2494 -221 8
4426 2505 -59 6
4435 2531 102 7
4415 2505 -141 4
4411 2520 19 7
4403 2539 181 6
4405 2513 -223 4
4402 2525 -62 4
4415 2554 99 3
4414 2539 -145 9
4402 2549 15 5
4416 2581 179 3
4414 2553 -227 0
4404 2560 -65 4
4411 2586 96 6
4427 2580 -150 0
4415 2591 12 2
4405 2608 175 2
4498 2636 -236 12
4489 2645 -71 12
4475 2658 94 2
4488 2650 -156 12
4488 2668 8 14
4489 2693 176 14
4483 2662 -240 12
4493 2682 -75 13
4492 2703 90 14
4489 2686 -160 13
4491 2705 4 13
4493 2730 173 14
4493 2703 -245 12
4493 2717 -79 13
4488 2735 87 14
4489 2721 -165 13
4491 2740 0 13
4496 2767 169 13
4011 2445 -223 2
4487 2748 -83 12
4495 2774 83 14
3991 2450 -150 1
4079 2520 -2 2
4465 2782 164 6
3970 2451 -225 3
3983 2470 -78 2
3977 2485 69 2
3962 2464 -154 3
3953 2473 -7 5
3962 2499 142 4
3974 2484 -230 8
3969 2492 -82 3
3972 2513 65 3
3965 2496 -158 6
3965 2511 -11 6
3962 2530 138 4
3953 2502 -234 3
3955 2514 -86 3
3956 2533 61 5
3945 2514 -162 3
3946 2529 -15 3
3950 2552 134 3
3954 2534 -239 17
3951 2542 -91 3
3954 2562 57 3
3968 2559 -168 11
3953 2564 -19 4
3954 2585 130 3
3927 2547 -242 16
3940 2565 -95 15
3951 2590 52 14
3909 2552 -171 17
3926 2577 -24 14
3940 2606 125 15
3868 2539 -244 16
3889 2562 -99 16
3900 2587 47 17
3867 2554 -174 16
3878 2574 -28 18
3887 2600 119 16
3822 2538 -246 15
3844 2561 -103 17
3860 2589 42 16
3822 2554 -177 15
3831 2572 -33 17
3843 2600 113 15
3785 2543 -250 16
3808 2566 -107 16
3813 2586 37 16
3776 2552 -181 16
3794 2576 -38 17
3801 2600 107 15
3742 2543 -253 19
3762 2564 -111 17
3776 2589 32 18
3736 2554 -184 18
3752 2576 -42 23
3762 2601 101 21
3695 2539 -255 18
3716 2561 -115 19
3734 2589 26 18
3695 2554 -188 17
3711 2576 -48 18
3718 2598 95 17
3655 2540 -258 39
3679 2563 -119 19
3691 2586 20 17
3656 2554 -192 13
3670 2574 -52 16
3680 2598 89 17
3616 2541 -262 41
3642 2565 -124 17
3656 2588 15 14
3613 2551 -195 17
3630 2573 -57 15
3642 2598 82 13
3576 2540 -265 40
3601 2562 -129 17
3620 2589 9 16
3578 2554 -200 16
3593 2573 -63 17
3605 2598 76 15
3539 2540 -269 39
3560 2559 -133 19
3576 2583 3 17
3539 2551 -204 17
3549 2568 -68 18
3566 2595 70 18
3509 2545 -273 42
3520 2556 -138 21
3543 2585 -2 19
3503 2551 -208 17
3522 2573 -73 18
3530 2593 63 17
3472 2544 -277 39
3488 2558 -143 19
3506 2583 -8 17
3464 2549 -213 18
3479 2567 -79 20
3494 2591 57 18
3437 2543 -281 42
3452 2556 -148 20
3467 2578 -14 18
3431 2549 -217 20
3452 2571 -84 22
3459 2589 50 18
3406 2545 -285 27
3427 2562 -153 21
3441 2582 -20 20
3397 2548 -222 20
3418 2568 -90 25
3428 2588 43 20
3368 2541 -289 20
3397 2563 -159 22
3407 2580 -26 21
3359 2543 -226 20
3393 2573 -96 21
3397 2587 37 20
3332 2537 -293 18
3362 2559 -164 20
3385 2585 -32 20
3332 2545 -231 19
3357 2568 -102 21
3366 2586 30 19
3302 2538 -298 21
3329 2557 -169 18
3354 2583 -39 19
3306 2548 -236 19
3331 2570 -108 18
3337 2585 23 19
3277 2541 -303 23
3302 2558 -175 21
3323 2581 -45 15
3283 2552 -242 21
3301 2569 -114 20
3308 2583 16 15
3248 2541 -308 20
3278 2560 -181 20
3292 2577 -52 17
3255 2552 -248 21
3274 2568 -120 20
3281 2581 9 17
3214 2536 -312 19
3246 2557 -186 20
3269 2579 -58 18
3222 2547 -252 20
3245 2565 -126 22
3265 2588 2 17
3187 2535 -317 17
3223 2558 -192 21
3243 2578 -65 20
3192 2544 -258 19
3223 2568 -133 21
3237 2585 -4 20
3097 2483 -316 2
3198 2558 -199 19
3224 2582 -72 20
3165 2541 -263 8
3201 2568 -139 23
3220 2589 -11 21
3022 2442 -316 2
3172 2556 -205 10
3201 2581 -79 21
3028 2450 -259 2
3179 2569 -146 17
3196 2586 -18 20
2997 2441 -321 13
3037 2464 -203 2
3174 2577 -86 13
2999 2444 -265 6
3035 2469 -147 2
3179 2590 -26 13
2994 2456 -328 40
3004 2454 -209 3
3030 2476 -89 2
3002 2464 -273 39
3018 2471 -153 2
3042 2493 -32 2
2972 2455 -334 35
3000 2467 -216 30
3015 2479 -96 2
2983 2464 -279 37
2993 2466 -159 12
3016 2486 -39 2
2958 2460 -341 34
2985 2471 -223 39
3001 2481 -103 9
2966 2466 -285 37
2989 2478 -167 45
3006 2491 -46 5
2924 2448 -345 3
2971 2473 -229 38
2993 2489 -111 48
2955 2472 -292 9
2977 2482 -174 42
3004 2503 -54 51
2893 2437 -349 19
2952 2472 -236 38
2978 2489 -118 42
2917 2455 -296 3
2959 2480 -181 44
2985 2499 -61 41
2875 2436 -355 6
2926 2463 -242 4
2963 2489 -125 44
2893 2448 -302 4
2943 2479 -188 43
2969 2497 -69 42
2862 2439 -362 5
2908 2461 -248 4
2951 2490 -132 45
2878 2448 -309 11
2927 2478 -195 41
2956 2497 -76 47
2853 2444 -369 12
2900 2466 -256 4
2940 2492 -140 45
2872 2455 -316 23
2916 2479 -202 29
2943 2496 -84 47
2832 2439 -375 26
2877 2457 -262 4
2926 2490 -147 45
2858 2455 -323 15
2898 2474 -209 10
2933 2496 -91 45
2829 2447 -383 35
2862 2455 -269 7
2909 2484 -154 45
2845 2454 -330 6
2872 2461 -215 4
2924 2497 -99 42
2806 2438 -388 43
2849 2453 -276 16
